ply
format ascii 1.0
element vertex 722
property double x
property double y
property double z
property uchar red
property uchar green
property uchar blue
end_header
-0.272298806399154 1.397929826194765 3.070987760688048 189 143 107
-0.297500811278512 0.956173313418439 3.704413097170630 189 142 100
-0.302668886269935 0.668294171902515 4.108487186356305 51 68 58
-0.265239869481370 0.701075709224930 4.059635048694808 147 136 140
-0.195826057062216 1.240373329929350 3.289889089063492 189 140 99
-0.170786667014458 0.196080583543232 3.706894767249792 3 5 2
-0.147995061685926 -0.129812916992121 3.455682217123566 98 92 94
-0.157708338232124 0.912068111595159 3.749501031988967 192 145 103
-0.139546350935238 -0.136970545586026 3.447533055977806 109 105 106
-0.133337924315913 -1.066437176818886 4.248284330111690 173 143 132
-0.108660917394686 -0.134661954916372 3.436446524557986 112 108 109
-0.106652637756857 -0.160790337727393 3.414078692794490 92 90 91
-0.129919672177152 -1.064340441112340 4.290168410601845 215 166 151
-0.103938231176859 0.324543725071562 3.760859343610515 103 86 78
-0.103938231176859 0.324543725071562 3.760859343610515 103 86 78
-0.098699917955442 0.284429273840693 3.727535895527432 143 132 138
-0.093353897474925 0.407595817664885 3.818757184926057 48 24 20
-0.080202800321815 0.286669369182796 3.721071391618133 141 132 137
-0.071766638315774 -0.108684391077243 3.435758148510349 110 108 109
-0.067416987517457 -0.502469667335325 3.501357060054631 226 170 147
-0.069288692983383 0.119760050872046 3.597914765434113 46 79 62
-0.065069477387581 -0.121945313159172 3.427069937255784 106 102 101
-0.046610608860909 0.286162823435579 3.707848715138192 135 125 134
-0.026887916350462 -0.089412606580910 3.434543751785443 119 113 113
-0.026887916350462 -0.089412606580910 3.434543751785443 119 113 113
-0.011416436666869 1.390654111979500 3.053876286328122 148 100 62
-0.005168542648688 -0.050557321407546 3.459768105386839 4 0 0
0.015900391488937 0.124677707306890 3.573587699928737 146 140 150
0.060538943271875 -0.068554151800572 3.434901930020303 10 0 3
0.082768758251322 0.721408906264318 4.007708326910231 69 63 49
0.082376620357205 0.521565625881884 3.849057898152016 112 124 110
0.073151779068491 -0.320169124307192 3.256204164553612 56 30 29
0.094079271575516 0.084546422553852 3.536803289328351 146 140 150
0.112777913050047 0.102075379440221 3.552449934881606 139 132 140
0.112777913050047 0.102075379440221 3.552449934881606 139 132 140
0.110221643484221 -0.344256146851172 3.254903048333910 86 87 91
0.120600334826190 -0.165476972040214 3.366628634587373 54 60 60
0.134382938932087 0.207599948385269 3.618813166888169 99 78 73
0.156280028130647 -0.127248971388298 3.397791213256750 145 142 153
0.156280028130647 -0.127248971388298 3.397791213256750 145 142 153
0.165121066930201 -0.069128316421977 3.431486283532116 8 4 3
0.165121066930201 -0.069128316421977 3.431486283532116 8 4 3
0.198621593296853 0.453192058866904 3.783269934381541 155 138 144
0.179247842894594 -0.214773779803481 3.335938632139908 48 69 62
0.181031084084279 1.186676584822656 3.349279444268447 161 107 60
0.192218995893341 -0.218736985237876 3.331473325560391 35 77 63
0.256628540900907 0.200253429302506 3.628173385849604 143 133 141
0.252335943614796 1.121233188228183 3.430129464046463 222 168 124
0.253477272852787 -0.085954008198259 3.429857872892831 150 144 154
0.251426599511148 -0.228273459802460 3.337104002691299 56 83 74
0.251426599511148 -0.228273459802460 3.337104002691299 56 83 74
0.260845959173763 -0.365371758281226 3.388399969339781 3 0 0
0.265033004618693 -0.345833151148837 3.263938743114181 4 2 3
0.277541424975096 -0.221159381641417 3.347196458973401 14 27 20
0.270268722993119 -0.339831305709257 3.151781518402374 56 37 33
0.317232830469588 -0.242251732982875 3.343336710223812 44 82 67
0.324237381676258 -0.229672228613451 3.356883848177134 103 92 90
0.432761866621862 -0.052980718609315 3.517570250258474 151 140 148
0.522232848755521 0.697274833760596 3.995184239112200 96 60 38
0.406774064113118 1.442036699593518 2.976263300539887 217 167 130
0.470493393479723 -0.101206822142216 3.369371358446977 164 153 159
0.580122740954690 0.671615343058995 4.041942328614753 103 65 44
0.453734971362134 1.303120764498129 3.165539504356093 217 160 115
0.651561861915574 0.700408828702747 3.991705453855971 251 181 122
0.625441696478190 -0.093965912971406 3.626565697688311 151 130 127
0.575758687914913 1.194079544042412 3.309894352722500 202 145 100
0.628650833205464 -0.126951613985213 3.581518061349511 170 159 163
0.567880074248210 1.281413203166511 3.186999824444703 120 69 42
0.622384747730409 -0.337588569612232 3.472026203882003 113 121 97
0.627601329642917 -0.372431635043199 3.465842079414629 163 156 163
0.663219572062157 -0.117543037179861 3.655764226287888 176 164 168
0.672273350947254 -0.136365736701313 3.659513838471229 176 164 168
0.652680652394767 -0.317904187886671 3.519816148146888 71 54 38
0.686521649529468 -0.375995842429029 3.532671088984426 168 162 164
0.627262341774787 1.280734861561649 3.182891940023104 221 162 118
0.768386199460180 0.811822190293816 3.828168676567924 174 122 82
0.643172024366038 1.272018088002847 3.197709489646179 154 104 69
0.646969215536618 1.314454019089390 3.133944694813309 234 180 136
0.655648615200523 1.303445609663732 3.149060195245331 229 172 127
0.962699465500175 0.288370530877570 4.552503054842212 225 166 122
1.232509875942631 -0.255286577348351 5.298467264681141 230 173 130
0.746659371701315 1.331514483630472 3.103654496950059 229 177 140
1.317104794132590 -0.203538588579258 5.231490601946305 213 163 126
0.854622783602449 1.128370958351624 3.380122523558187 236 178 130
0.848938444441575 1.148565245028219 3.353748265405276 226 168 120
0.904394288785541 1.050558535579272 3.491123611729400 204 146 100
1.448579761479731 -0.466564650718092 5.558670291584036 210 161 129
0.884689324131853 1.175051217790927 3.308364663323163 134 82 45
1.434511775262970 -0.172708723796806 5.173868368927092 203 154 121
0.901940965680370 1.247984616295981 3.230870156224865 234 175 131
0.906844768517841 1.242245951073554 3.206905645776423 212 158 112
0.906844768517841 1.242245951073554 3.206905645776423 212 158 112
1.171822741679116 0.685301158693795 3.976198855720017 241 183 143
1.639398509094938 -0.301261964610583 5.366987797964041 225 175 142
1.847290928696871 -1.494599868751440 5.966565566411957 195 188 196
1.016209217594866 1.203481974528436 3.270163262338341 170 118 79
1.583557645078111 -0.092981022654526 5.046392870462021 209 159 126
1.025327743611380 1.197318247448925 3.272896607311190 186 134 87
1.013532429286530 1.221264575329421 3.234180834099433 222 169 127
1.006789010497382 1.269598707873935 3.166551605937470 216 163 119
1.006789010497382 1.269598707873935 3.166551605937470 216 163 119
1.061705751498477 1.181508967914677 3.289484109212255 222 168 124
0.798767552689719 -0.591771194176010 2.457260959312683 194 196 221
2.271323697529761 -1.666089105274476 6.879884001928052 194 199 228
1.653812952791885 -0.058852880472869 4.988206997699685 215 163 126
1.730760211466323 -0.046129189400186 4.951295680375913 212 161 130
1.509914598131469 0.418035102656336 4.318725872908822 227 175 138
1.509914598131469 0.418035102656336 4.318725872908822 227 175 138
1.995828429438555 -0.393087736603856 5.418579545767799 210 166 141
1.764990652671856 0.189365749453439 4.617176177622978 232 177 138
1.322505348768795 1.163572408306924 3.286722585770411 203 155 115
1.537939139242808 0.992261428105554 3.507040195714370 181 136 97
1.990608870219597 0.502903106768731 4.150315583838798 217 164 122
1.598467537770813 -1.658169443667446 3.273358997634180 189 210 241
2.491753283871400 -0.189988301762122 5.091986788876059 216 170 144
1.809052345434661 0.882525624665099 3.628665466494007 208 164 127
1.594506513788265 -0.849288842143473 3.105540215240713 108 197 255
2.116022647707301 0.566534303023873 4.039640030349352 237 184 144
1.604036703486272 -1.520113799928412 3.011403068065717 186 210 244
1.700454899023044 -1.409901064360371 3.175115283363832 188 212 248
1.865191367425094 -1.542396691983949 3.439441871781586 188 212 250
1.242198592548784 -1.116764122822286 2.221866272652834 186 210 246
2.520571372314107 0.300856711662182 4.365869148870686 183 140 108
2.180046653864215 0.794123801034359 3.713368649642806 218 172 139
2.456981312303070 0.476037377134008 4.117931286183722 185 151 126
2.583018257324997 0.363048422529088 4.255735429537198 197 161 135
2.245947088259231 0.824194626068598 3.664960716595200 219 176 142
1.883194404803915 -1.309321557067009 3.060050945539757 184 209 249
2.295660160313895 0.787125908333067 3.711548203952628 216 170 136
-2.571707001524703 0.369725512346398 4.676067256064648 161 120 92
-2.570705912646813 0.309625795304980 4.747370376928458 162 122 96
-3.875196380757946 -1.407461155687085 7.302861024949570 133 111 97
-9.193757580798726 -8.745571278528130 18.929760848362545 125 149 173
-9.193757580798726 -8.745571278528130 18.929760848362545 125 149 173
-9.128522415655143 -8.510024031081716 18.934919247455888 97 113 128
-2.038463458893445 0.606510804627690 4.297911160296711 206 167 134
-1.921362609444103 0.676846231277570 4.186648831491370 206 167 128
-2.095033059947418 0.173754958781226 4.938019090200048 156 123 106
-1.626134894868141 0.893075616169335 3.861801199705881 154 112 87
-1.626134894868141 0.893075616169335 3.861801199705881 154 112 87
-1.876338385200556 0.452138652394952 4.518239619893991 175 130 97
-1.614955892062639 0.866023706496849 3.897481079447192 148 108 82
-1.541250857350675 0.788171581931270 4.007211141629965 215 170 131
-1.668352459164036 0.562799664445233 4.351014424039470 170 124 91
-1.741598155746828 0.357198980685774 4.656171804382892 178 133 102
-1.389900009793763 0.981738838808812 3.723624966675911 149 109 83
-1.349814842246912 1.039460305335100 3.640057594132288 148 108 82
-1.668161935431359 0.108794457320524 5.008976721395986 168 139 121
-1.309334480119341 0.826581547136628 3.942385340488817 216 168 130
-1.080934017331295 1.291992839163576 3.260741697169494 167 124 90
-1.416316295651862 0.581386657273833 4.300172851218124 172 131 103
-1.271278584589427 0.866255433710506 3.888814529490872 212 167 128
-1.054619762875975 1.301343381686826 3.241302242709102 174 130 95
-1.260452744951749 0.821905056586673 3.941482221367186 221 173 135
-1.260452744951749 0.821905056586673 3.941482221367186 221 173 135
-1.137155068889508 0.983767651433656 3.704966984568469 173 129 100
-1.269757888261893 0.552357248598889 4.344941041430990 182 142 116
-1.131043421899574 0.641152960017175 4.203552504857123 173 131 106
-1.239183258707760 0.296591273085325 4.714199469211649 161 135 122
-1.347639548495601 -0.080064506403683 5.265782015492720 161 147 138
-1.271546780224963 0.013185251439930 5.118429708412715 139 130 125
-0.945064657937413 0.695143250549177 4.118552853599931 174 138 114
-0.928896469660474 0.719203829764240 4.084397179306978 176 142 115
-0.928896469660474 0.719203829764240 4.084397179306978 176 142 115
-1.110710486063816 0.084448867935675 5.005458163175558 144 131 123
-1.043757141356438 0.197616112163385 4.845792772862585 149 136 128
-0.976874418416691 0.403264552778914 4.538066479913401 133 126 120
-2.595628788108675 -5.970676433007249 12.149508327730151 15 24 31
-0.956111502530333 0.324885603321911 4.642788914583607 138 133 127
-0.789125486520342 0.722572611777412 4.063957873932671 159 128 107
-0.614979559233965 0.911836379341558 3.784713964849791 186 146 110
-0.680299991910265 0.583809782612484 4.257288490097161 128 115 96
-0.436907340002534 0.842160730212575 3.877875971503230 157 108 67
-0.458528426849143 0.655076841363291 4.139606680614240 95 79 63
-0.405557933892452 0.915842673821944 3.763067048911513 190 147 105
-0.303237763602441 1.014535604018814 3.622464252930715 199 154 113
-0.293491695927887 0.863330706992780 3.834123110537053 193 149 112
-0.228183518132325 1.420080505230715 3.034570326013765 173 129 90
-0.244282915177871 0.915320761227357 3.755636737102706 164 120 81
-0.524459197306599 -2.709381660381717 8.729791764021918 91 171 234
-0.202468915531626 -0.056224457096674 3.540628252068591 3 0 0
-0.195970116899880 0.298810577541771 3.803070899750350 133 118 113
-0.151596186798396 -0.147751509236866 3.453486917609872 106 100 102
-0.139701055140698 1.033631137627978 3.579343106372564 169 121 81
-0.091224546430254 -0.360580489718086 3.297371539305684 239 177 154
-0.053020992741426 -0.127403183810764 3.419492101105641 117 108 109
-0.031974473546300 1.346195538430398 3.124293743779758 197 149 109
-0.035300251387312 0.277414639900186 3.703742598977812 147 137 145
-0.034440220430170 0.325295404955334 3.732336328271370 135 115 106
-0.025892725486498 -0.353825813309072 3.274852505868410 97 113 113
-0.016064668104674 0.154457953828662 3.605377355673710 146 138 149
0.030615032523405 0.114615455969267 3.566478897454655 147 141 151
0.022446140861489 0.947401129884120 3.682979389658845 196 143 91
0.019621860341874 1.146100027925052 3.418525839622334 224 173 130
0.024055002517272 -0.031368871045920 3.468264186293732 134 121 113
0.029739100865694 0.098971169347002 3.551602848064407 147 141 151
0.043290664908819 0.308710051191087 3.699164355733946 79 56 48
0.044441213104187 0.960346770360352 3.676675877160549 217 164 112
0.046434466575424 0.100452757665131 3.551252291531057 146 140 150
0.060545190620706 0.085534194704485 3.542264404561052 146 138 149
0.065419315920976 0.070406062628790 3.529215717943010 132 127 134
0.071590962239478 0.278855179143289 3.671691894315628 149 139 147
0.062795520516720 1.388498280832061 3.064748845717083 200 152 112
0.073523615939178 -0.150021156720794 3.377498265018314 126 124 135
0.088173637052458 0.921593248211054 3.737872642756329 213 160 116
0.113996573053120 0.223457132856646 3.628122270346096 139 128 134
0.119146194967296 0.113904987721690 3.553289673515358 113 120 89
0.139779654295307 -0.163543316293244 3.364027176337611 11 7 8
0.139840131769872 1.214572583794557 3.313392769301835 190 134 87
0.190611282447556 -1.010915772200518 4.280181469876021 192 156 144
0.170726922329005 -0.121847774975453 3.393587779445899 145 142 153
0.175437189826326 -0.172693837981261 3.362076983652696 2 2 0
0.206694195470558 0.955221455116301 3.667780219379331 214 160 114
0.185950864066033 1.201323118536923 3.327705920022435 200 149 104
0.218593327735665 0.317154194748747 3.695126554468219 138 116 105
0.212560978041600 0.977881048933106 3.641695292899920 183 127 80
0.234347041595212 0.192421598959138 3.619987273051082 102 88 75
0.221340162309383 1.120461561969020 3.444122597310479 207 153 107
0.260783875894551 0.211491394320597 3.629600985483759 142 127 134
0.260783875894551 0.211491394320597 3.629600985483759 142 127 134
0.268912091349929 0.951826477964618 3.670357577772771 221 165 114
0.282802585593907 0.244107261937953 3.655213122382684 145 132 139
0.304431848553853 -0.043007223091109 3.475318353302116 150 140 148
0.301748097311133 1.129783393385704 3.423532942592959 213 157 110
0.273058978753662 1.420980894703639 3.010647351130923 212 163 122
0.323872710728579 1.138365169703994 3.407486844054488 217 164 120
0.389969151922886 -0.036411413451847 3.505319754429994 152 145 153
0.361838751616332 1.252746043679965 3.242064733942589 177 125 85
0.361838751616332 1.252746043679965 3.242064733942589 177 125 85
0.410711589459948 -0.042056436316221 3.511335102719979 151 141 149
0.489616980808387 0.689892804658729 4.026831533629619 162 126 112
0.554734531177347 0.697999835682352 4.014840443691982 100 62 39
0.554734531177347 0.697999835682352 4.014840443691982 100 62 39
0.552883798703287 0.734522945038194 3.959293412971748 209 147 90
0.553978137164610 0.748140431124050 3.935290463517335 199 136 83
0.469959935105152 1.374623184983483 3.062744414963261 231 179 139
0.592968494678034 -0.093009663761352 3.600343701015860 102 74 62
0.522318835595191 1.305648788083147 3.155087815910747 232 179 139
0.643925787280798 0.804233539669790 3.851691024873448 197 145 95
0.723015996776502 0.730444342357462 3.955757911232182 239 176 125
0.673680739659125 -0.158435951526346 3.646188016067758 141 108 101
0.636887849437213 1.234524463154705 3.248256313508368 197 143 96
0.644945166674873 1.213550213854604 3.275631883576093 216 162 116
0.626561463122575 1.357879084716944 3.073088509185070 128 78 43
0.754177778712155 1.160647881994137 3.339542076607068 178 120 72
0.863598254958154 0.869625193800835 3.750394755254620 235 177 131
1.376985822676569 -0.669551172155549 5.895789014411241 205 160 129
1.236001320625947 -0.238861658556540 5.283961914730449 229 170 128
1.236001320625947 -0.238861658556540 5.283961914730449 229 170 128
1.442784335051472 -0.842424373864097 6.113175891926260 214 169 136
0.951969806892794 0.669296555565547 4.015357028218969 235 180 141
0.892716661807188 0.858325899968115 3.740023008880770 232 175 130
1.166736740389179 0.171851024623416 4.707943049125201 217 162 121
0.896294450067487 0.971430878646761 3.606680991953110 239 183 134
1.066246173403208 0.676680385961243 3.997001705656341 226 169 126
1.001766666597971 0.896686503014602 3.689056435037245 246 185 140
0.922027042331690 1.268149075778858 3.177596109402498 178 129 89
0.922027042331690 1.268149075778858 3.177596109402498 178 129 89
1.457097576361045 -0.018776680448306 4.945603444409552 213 160 120
2.100223226085931 -1.424075940420628 6.813871025291471 188 176 178
2.323411852266312 -1.772646157920230 7.300049870807460 194 193 209
1.381940494573339 0.649280930496268 3.998333623697590 234 179 138
1.731437439415105 -0.026537883992618 4.926016262602454 217 164 130
1.583676953739431 0.420846666881789 4.321310218996532 209 156 112
3.066738711411052 -1.853080784099479 8.190853465601187 189 206 250
1.765060484333125 0.245687339759535 4.536950177455248 229 176 136
1.297038262601438 1.155014443541692 3.304274451621746 205 156 115
1.519401497945012 1.012949979748808 3.487423297975107 203 155 115
2.551800703377003 -0.539119413682443 5.547244802587653 225 187 168
2.296548587392881 0.127768903776048 4.649421384242102 212 163 130
2.296548587392881 0.127768903776048 4.649421384242102 212 163 130
1.862052015708262 0.817338490758439 3.719330329223664 218 172 136
2.079777661951507 0.521030045069851 4.117164286587132 212 161 118
1.965983350761517 0.687066860149353 3.887851978754922 234 182 143
2.289881827579000 0.214170647972003 4.514224036165667 211 163 127
2.074561569104753 0.559662783576104 4.053003532614878 238 185 143
2.496389979060095 0.110417124965940 4.633164791104178 210 165 132
2.203068739113993 0.592398582905298 4.001043262654977 234 182 142
1.637317494836192 -1.135922961988748 2.481102997006965 183 208 248
2.541597679352551 0.656825281301943 3.845824888554406 225 180 147
2.364853831684068 0.890936619614857 3.568346842478712 209 164 125
2.373900971768756 0.878057071845838 3.577341716272558 213 169 132
2.556651549453829 0.659660983380814 3.842883013039319 222 176 140
-2.583486282173967 0.390249542178713 4.637157529374125 166 125 95
-10.722963894335324 -8.395816085461657 19.306880084472027 69 77 88
-3.016929042544220 -0.199281509226281 5.497814457080376 155 123 108
-2.039310833640569 0.794976205634050 4.028892845400435 143 98 75
-1.829333474625826 0.961675735646134 3.774059586391491 142 100 76
-1.992152682178254 0.594300864494689 4.317191007336255 205 165 129
-1.777725813674219 0.777214104688341 4.036367827541074 205 163 123
-2.018927890666980 0.338918820125349 4.686504197521729 177 132 101
-1.719451972879918 0.487032198271088 4.464400111997677 173 130 98
-1.375713810248943 1.077474604529665 3.582480747741463 158 113 84
-1.369056218622306 1.046423677815440 3.620530808493749 140 99 71
-1.360458845480032 0.991851984645090 3.711736211726472 159 122 95
-1.543547428400330 0.575154050254106 4.340323747671440 173 128 97
-1.894531453056144 -0.160342711783829 5.407580044060247 179 152 133
-1.982311609721256 -0.336561363708603 5.699852094267756 176 147 129
-1.940869806321792 -0.299676635597339 5.600858727212366 174 147 130
-1.680375214532375 0.161055591844424 4.939013652432913 166 137 121
-1.102359857609199 1.283691417034884 3.275543888952258 162 119 87
-1.760566521914231 -0.251950374963834 5.540313526881310 182 153 135
-1.746804373378987 -0.306119961654685 5.624127048435240 183 152 132
-1.159692775887205 0.853270572630411 3.903308215982563 174 137 108
-1.061628588345118 0.937549708727479 3.769107142977880 156 112 85
-1.149637232024465 0.682562887571845 4.146937757749067 185 142 110
-1.264615356285335 0.352068128936441 4.648352423218712 158 134 122
-1.081057695973771 0.732693452724894 4.061814726908217 175 139 115
-1.265116613150953 0.126443612037339 4.945970777941678 171 145 130
-1.121584275421751 0.388203227233837 4.579662022365953 146 128 118
-1.072535083869306 0.526223782340822 4.373296975511270 168 136 113
-0.994175332119853 0.715389243411875 4.091708497723720 166 130 106
-0.619288193488382 1.397931789653941 3.084654797557134 169 125 90
-0.767548411804294 0.869998810551005 3.855664184475594 178 139 108
-0.611483624296908 1.392001083547105 3.097305266849375 175 131 96
-0.823078360403362 0.645133302667321 4.197931649315378 151 128 112
-0.778623718386521 0.785361344286471 3.978877881180137 171 137 110
-0.699779533204581 1.006558886646086 3.659816976901606 195 153 113
-0.626124699962908 1.167395974843520 3.421986269100184 183 142 112
-0.643713821610886 1.075338187043682 3.550256888743778 169 123 90
-0.621149842768104 1.022132721477329 3.625033314182323 197 152 111
-0.485860042260266 1.467539681952935 2.984252809944441 177 132 93
-0.450312388161687 0.927624950817621 3.753814029941999 186 143 101
-0.403748758312855 0.653619179224460 4.136733946877667 141 134 141
-0.214439278188078 1.417614612297947 3.039665865171858 183 139 102
-0.247661524965622 1.062808954629968 3.549415995267153 175 130 91
-0.174012460763167 1.330000210400046 3.157831833549026 184 137 95
-0.426620029558998 -2.901417362567396 8.693016810363224 73 172 231
-0.147553427687441 0.896220443261243 3.778350999528942 199 154 113
-0.145608097364643 0.923898010731418 3.739567473153033 180 131 91
-0.117612162165620 0.227459756178013 3.700185712642929 56 87 71
-0.104814851858271 -0.181733223042562 3.392150680432499 124 127 146
-0.084865348973666 -0.119742355483173 3.434920298761529 111 105 105
-0.079965556561164 0.953886023251650 3.689450047452510 194 145 102
-0.041113478870037 -0.732998451532425 3.988283381227955 81 105 115
0.016550572783073 -0.182179142643920 3.361274992172154 132 133 151
0.010143567236233 -0.553601828081630 1.463484933334305 114 183 225
0.025857303801087 1.181779806061978 3.366135723665860 218 165 123
0.029746665600139 0.114919897526744 3.568500689130665 147 141 151
0.042783923630410 -0.167620556533605 3.368580257816105 126 125 143
0.045750043168938 1.398987910177838 3.052731060518908 193 145 107
0.055985023760560 1.364417743148772 3.098023055430685 169 122 80
0.066576418047538 1.380564969931742 3.077599804418963 194 146 108
0.105668668217221 -0.287851292484180 3.276983714523190 163 151 161
0.115623756488431 0.071938547816320 3.528291704280715 149 142 150
0.135512294436514 0.252077589181811 3.648337382838102 114 114 86
0.169216395193645 0.431291031025464 3.769309026421879 155 138 144
0.163780595603744 -0.209123815298298 3.337140562661162 55 76 69
0.169476379921420 -0.156951835958636 3.370277829074011 68 85 75
0.191672822586951 0.033252894967912 3.501857508207368 149 141 152
0.191672822586951 0.033252894967912 3.501857508207368 149 141 152
0.205785246727317 0.212915938068075 3.628021554706009 125 109 112
0.220640412022591 -0.015841810947145 3.479449922439095 6 3 0
0.229851361959822 0.207417709634608 3.624542163252757 87 81 65
0.244539634822249 -0.005921565127698 3.488369652817947 13 2 0
0.253042125290667 -0.246752030861552 3.327044910102056 36 77 61
0.273901879436115 -0.016487121663707 3.536603309647795 150 143 151
0.289736881632438 -0.001584337287917 3.494797839187448 155 148 156
0.289736881632438 -0.001584337287917 3.494797839187448 155 148 156
0.289755189448356 -0.020866763909732 3.492388836392920 154 147 155
0.289755189448356 -0.020866763909732 3.492388836392920 154 147 155
0.313429993858866 -0.098713266535899 3.436817271731005 141 131 142
0.313429993858866 -0.098713266535899 3.436817271731005 141 131 142
0.273697405193059 1.420374892551122 3.009223175729141 205 156 115
0.321872277476969 -0.034034761209822 3.482113982676780 154 147 155
0.319993164777931 1.126864474028968 3.422134856494580 223 168 114
0.349980613815625 0.212635133891893 3.660758086296567 156 143 150
0.356837822452778 0.996019041164984 3.606204085305125 204 144 94
0.353224171156009 -0.325068823134398 3.430347559050086 156 150 160
0.374933921807105 -0.049439322880909 3.494696402333270 157 150 158
0.434299684106118 0.780827099567630 3.915223774556728 230 165 109
0.434299684106118 0.780827099567630 3.915223774556728 230 165 109
0.395975756820115 -0.054727549458809 3.501578643236062 159 153 157
0.395975756820115 -0.054727549458809 3.501578643236062 159 153 157
0.386262290074982 -0.237297487682187 3.371100753252856 22 11 9
0.386262290074982 -0.237297487682187 3.371100753252856 22 11 9
0.475570142896039 0.766972099381383 3.930987975005383 227 161 103
0.401882420794356 1.305254081619253 3.164662306409021 205 152 108
0.401882420794356 1.305254081619253 3.164662306409021 205 152 108
0.502866305672979 0.807912564370223 3.857482714485999 226 166 114
0.472261717919088 -0.040570940396131 3.557733361483435 159 146 155
0.393881159762923 1.441476278713705 2.971121905927279 210 161 121
0.482077671399470 -0.001594156179708 3.572016599917513 164 153 161
0.500125351424155 -0.018880886711505 3.578916227616899 162 149 156
0.502579883200227 -0.106546875652558 3.518193233264057 163 154 159
0.518738053322214 -0.009445987434685 3.593542936777242 124 103 102
0.481540628597527 1.178032355678734 3.335745893994491 215 159 112
0.518950476266872 -0.070056869700062 3.557096632583401 160 151 156
0.574645502183732 1.283642053747038 3.831390001023764 230 178 130
0.613405804193384 0.829987861908717 3.823951574110077 228 171 118
0.597735692703308 0.050650370845112 3.695150475058739 101 115 79
0.650383538618964 -0.066959659225917 3.686290928013061 76 44 33
0.659418981750333 0.921641672472434 3.683449060824946 241 180 133
0.557568011649061 1.370327282021105 3.070031275051177 231 178 136
0.706792617322906 0.797916560037869 3.851696782510670 219 163 116
0.740597290871190 0.866830158772688 3.754649748389301 231 177 131
1.036890863230338 0.215657068740148 4.647467111406127 214 160 114
1.401938477740733 -0.655857108554414 5.880622522516137 208 163 132
1.173107916722609 0.306689097287908 4.510194078505053 224 163 116
1.535804117570053 -0.644858514688523 5.851474193024525 209 165 136
1.633145106505938 -0.746521790265692 5.936270684537702 217 176 148
1.409686497465011 -0.070962644981071 5.027565607525441 207 155 118
1.445704613305834 -0.049254358824743 5.014420537631689 210 156 118
1.246751426664891 0.481735609311465 4.251380812166275 230 177 137
0.983928449055544 1.222057508083495 3.244751709186568 212 160 113
1.323160150982884 0.592954869979932 4.080366750137194 236 182 144
1.060536649275353 1.250535973376999 3.190125399447542 184 132 85
1.394524182260997 0.687123823427102 3.949793731268711 238 178 141
1.695328579554270 0.178356011805909 4.645880643124074 221 166 127
1.400486060252187 1.104534782687361 3.358885812970467 231 182 142
2.098675174201655 -0.046045115773229 4.942500854356222 228 176 139
1.441097124765457 1.067372176495941 3.398566709082574 216 169 127
1.441097124765457 1.067372176495941 3.398566709082574 216 169 127
2.249273097151313 -0.300495342115583 5.253680804727616 211 165 139
1.866637365294669 0.413925628904831 4.302686112127104 226 171 132
1.448491747978394 1.139703483204202 3.311197191276842 204 161 126
2.585215121731645 0.065882105086317 4.669883010002265 214 168 135
2.218659053221042 0.703559096985796 3.834793726007931 221 172 132
1.554599028754358 -1.333632075359630 2.642899094185623 185 211 246
2.185822493065479 0.824303864242727 3.671173281936270 214 169 130
2.493251959774753 0.505911584659803 4.063852555915870 177 146 128
2.409606481966979 0.754125562342974 3.739520918893455 217 172 139
-4.575262282518620 -1.272856263813747 7.124582692179176 139 126 133
-10.712586706457454 -8.394263425904514 19.289031570544605 69 77 88
-2.697703718121577 0.107322155077108 5.054311103836965 163 119 94
-2.701826945378728 0.039156564840647 5.117451965260398 152 115 96
-3.197124484730032 -0.572692148754981 6.075259268718417 157 128 110
-1.764053960192621 0.947697285898993 3.789733024910371 134 96 77
-1.715201578802576 0.918550215394239 3.823310993048657 148 112 90
-1.715201578802576 0.918550215394239 3.823310993048657 148 112 90
-1.715201578802576 0.918550215394239 3.823310993048657 148 112 90
-1.831400449815440 0.662563006046096 4.203334632616382 205 163 125
-1.542885832216361 0.925389504243957 3.810890686381162 154 112 87
-1.729969099372548 0.562708136921508 4.340388915962102 157 110 80
-1.729969099372548 0.562708136921508 4.340388915962102 157 110 80
-1.572757827854197 0.757730872979188 4.050503358197425 213 168 129
-1.890703561192673 0.087570341761048 5.047646501806971 160 131 115
-1.536071369578008 0.697385560566447 4.150194977372776 209 166 132
-1.451742792255939 0.774414030463744 4.026204642393738 211 167 130
-1.970118621283129 -0.272178655223810 5.580444960120823 181 152 134
-1.362942563274972 0.593606004638124 4.280763931328030 181 137 110
-1.253205702768708 0.845095809859175 3.932022907987411 220 172 134
-1.109020685786574 1.099002312878102 3.536841900243291 156 111 80
-1.621068480611179 -0.193532747878536 5.439669531350301 186 155 135
-0.983872403140795 0.674815232740965 4.142991565713078 179 147 126
-0.978949283319134 0.641253487031260 4.196207778832741 179 152 133
-0.886880157346914 0.898403315514244 3.820862030984057 169 128 100
-1.074769093862476 0.279238640698975 4.728464687583131 152 139 133
-1.074769093862476 0.279238640698975 4.728464687583131 152 139 133
-0.895210351180498 0.489848039703581 4.414689620139644 132 122 112
-0.609225804747203 1.432428841255129 3.033693394686190 174 130 95
-0.749458235869013 0.857108865735001 3.868494899480967 183 142 110
-0.619062472547896 1.087618824708332 3.533816043808806 153 103 68
-0.658679384923881 0.743748390440031 4.032589145831969 164 134 110
-0.565771307308249 0.643907080568511 4.163018348094937 133 118 95
-0.464409554605248 0.875048848353545 3.828114188031472 152 107 68
-0.413279143260204 0.841112959920038 3.847846107838460 159 111 71
-0.265408233794996 -0.403325345332883 3.628060185797934 128 147 153
-0.446361355922887 -2.671332700468419 8.725786716316460 129 188 254
-0.181982895696271 0.786256649688565 3.930687154819335 108 87 70
-0.020488115767054 0.561515440619583 3.888370747242718 64 89 68
-0.016620380210595 -0.059957080305158 3.450421407911942 19 1 0
-0.015445025197358 1.086712708831564 3.501602320053812 211 162 121
-0.001474771128689 1.443139305960454 2.985166517081488 204 156 116
0.010698216293495 0.300284807027884 3.701442261044456 113 90 82
0.014213644182543 0.155527241792981 3.598908894110192 136 128 139
0.116893165103206 1.328169079620633 3.153498477634186 188 139 98
0.155267277399987 1.033682314227283 3.554856376503210 184 131 81
0.154645300910279 -0.143882824261924 3.384842301628241 136 133 144
0.170368182553758 0.183466015308452 3.603713770421805 148 138 146
0.149099573392427 1.294355114542013 3.197864124160374 212 163 122
0.170214351480389 0.092187966701467 3.542819601705445 133 126 134
0.180021956591507 0.235427415667440 3.640315415500434 111 104 85
0.199099260212282 0.074765306686461 3.535663144073173 20 0 1
0.223608831750129 1.102076174718584 3.463365804123584 222 166 115
0.262104238126829 0.007491110697738 3.493583686040090 153 146 154
0.262104238126829 0.007491110697738 3.493583686040090 153 146 154
0.269088859722642 -0.122028317372724 3.427403966935491 146 140 150
0.312997920512658 0.710659566191355 4.005819248487548 165 143 145
0.248878085671848 1.348537288007237 3.109127635489570 181 133 93
0.350049577852570 0.206660999852801 3.654675664076824 157 146 154
0.321991381451785 1.258016375602212 3.243399320965832 164 111 67
0.354581158511139 -0.001584573997404 3.512532530163039 88 68 69
0.354581158511139 -0.001584573997404 3.512532530163039 88 68 69
0.373173462564230 -0.048731154947402 3.500093446292501 157 150 158
0.392797787723953 0.356091578071319 3.767325455201087 127 129 92
0.384297072021904 1.006475249103118 3.587826695686803 160 106 59
0.434345048786309 -0.030165058391018 3.567981681648977 159 143 146
0.446337867006111 -0.033287096467674 3.528912625108286 151 146 152
0.504955869735742 0.707298151916278 4.008541449330844 100 64 40
0.514034659087547 0.729650573872574 3.968782579956504 131 76 45
0.543536545634819 0.673502605077572 4.056991821754612 90 54 40
0.554809710542330 0.798870965576957 3.877511857248871 243 180 126
0.577952059293205 0.785936102793178 3.875587766587833 239 177 126
0.456942570845962 1.390804155274952 3.044300716901669 180 131 90
0.483656684486193 1.275380805639194 3.206635932941033 235 180 139
0.604960422511296 0.294202665673402 3.857971696098895 73 48 28
0.612238364820553 0.784250841712238 3.887531117539020 239 176 125
0.536155056143238 1.216377860856245 3.285260615361550 251 193 145
0.624723165633657 -0.016938371447642 3.679116945727968 108 101 73
0.671202175050434 -0.507403508262621 3.462906120348349 143 127 130
0.669074377855664 1.283572634140544 3.186176556511228 224 173 130
1.401960771952377 -0.655412197465670 5.873379406257999 208 163 132
1.217227678209147 -0.066893901912861 5.037747471792975 207 152 111
0.856626013833479 1.042731313677936 3.502003034261123 217 158 114
0.779215867978005 1.305888537807558 3.140026481871597 222 168 124
1.182039605550262 0.260939225804327 4.584037645680614 224 165 123
1.547254184563951 -0.684234490419362 5.891454581165312 216 172 143
1.445790132849950 -0.048585270567685 5.010660697960937 209 155 117
1.125615729831405 0.736979253232426 3.903827214580957 230 171 127
0.976615040744048 1.113107311586366 3.384155380497777 224 170 123
1.342766569408239 0.243334634911715 4.574895689618090 218 163 122
1.476688925261180 -0.038381670318061 4.967001661537212 215 163 126
1.034948474377559 1.174112940808267 3.297340818378396 220 167 125
1.080122047922335 1.115948807051566 3.382739979637271 186 129 86
2.042625556659296 -0.942347956034541 6.152163104452644 213 183 173
1.688849312528800 -0.136868304352066 5.097119861557222 230 176 140
1.686374298575385 0.093329430208906 4.767169635593962 220 165 126
0.965726439645478 -0.418278202279430 2.475621648276197 222 203 205
0.974793144984987 -0.409751861881139 2.437227045239143 223 204 208
1.435388523066158 1.085782858213254 3.394426573328318 231 178 136
2.387722800983327 -0.456663748195657 5.470117540324683 199 162 144
2.207007804496409 0.163129755983619 4.607838078090446 212 164 128
2.342826959535999 0.042620651821797 4.741424330410448 216 169 139
2.438377729468381 0.178816985104184 4.543209201454362 209 163 130
2.189053436272870 0.533961998342824 4.080579258673366 204 155 114
2.244105235236182 0.769605452503932 3.752647252711424 218 172 138
1.806748747106280 -0.469756385319061 2.758743855806803 184 206 247
-4.034258102107553 -0.897996771595132 6.587022905620478 148 128 127
-4.029805712920228 -1.132863281418158 6.832616773646046 138 116 105
-3.551295940927574 -1.327389969487668 7.127808704110667 142 123 116
-2.024958268216191 0.770058631165007 4.070936829861620 140 95 72
-2.549206974487942 0.072138534195242 5.313909143311030 144 115 99
-1.962049693994088 0.671767655536657 4.198975312860702 202 163 124
-1.854512296444960 0.805123263581721 3.993941005779246 139 97 73
-2.324706884077278 0.091221153142274 5.039248685689217 149 121 107
-1.665108411500287 0.635748862154236 4.211295380575646 206 163 128
-1.462311255149087 0.894684968703643 3.855428634739645 151 107 82
-2.154995763510506 -0.360466983525048 5.711766265326583 174 147 130
-1.462621825205086 0.851823214555143 3.916484573992345 212 167 126
-1.312256169186877 1.060120612992975 3.597797719220993 160 116 89
-1.312256169186877 1.060120612992975 3.597797719220993 160 116 89
-1.825853392989846 -0.214033600065512 5.493427954942644 183 155 134
-0.973703777044159 1.164773266885721 3.434970737946729 184 141 107
-1.279608738925834 0.364931778088946 4.627959623320429 155 115 103
-1.028782503072338 0.915159739869787 3.800841321967531 159 118 90
-1.010966716630901 0.941189338660726 3.761857468843272 173 129 102
-1.312090313868511 0.101655007678268 4.997514729197233 170 147 133
-3.355065255844815 -5.524994314820795 12.846952173830386 103 138 158
-3.323620002267000 -5.283240200534932 12.995472396683782 104 170 204
-1.140744205665350 0.276486507891223 4.730330025155078 156 136 127
-0.869615553495323 0.979172267677905 3.690721139888000 176 129 99
-0.796047917099837 1.096238210522475 3.531120078939516 137 92 63
-0.877699368736739 0.782286678360708 3.982708154989492 168 127 105
-0.809335103035562 0.747071456022710 4.039473402589278 176 142 115
-0.809335103035562 0.747071456022710 4.039473402589278 176 142 115
-0.656321083033220 1.147771489796021 3.441260705449900 159 115 88
-0.630632073129620 0.871470212302093 3.846444068282539 184 143 111
-0.487785009374983 1.450738629939699 3.013436972310143 146 98 62
-0.450917746366416 1.410496140105408 3.064406413620677 178 130 90
-0.411482994701659 1.265365630863059 3.269240709875811 174 127 85
-0.297453418722706 1.006349657941095 3.631637839643732 187 142 101
-0.300029145979566 0.947864237509902 3.715616612635735 190 143 99
-0.172708884044367 1.248678388023891 3.282361081740194 190 142 102
-0.152668247546320 -0.195733992758291 3.416556629459090 124 127 146
-0.312534244969841 -2.703915402713400 8.560524595825783 9 122 178
-0.309494300714574 -2.801485999134803 8.623907339131087 28 143 198
-0.309494300714574 -2.801485999134803 8.623907339131087 28 143 198
-0.283395939526590 -2.632493292325358 8.616726102986641 105 175 235
-0.098915958729109 1.429848929990266 3.010011837814831 195 150 109
-0.084689172856519 -0.042609387242989 3.495741131100075 8 0 0
-0.055457061482446 -0.342288508307906 3.289359213986983 189 179 177
-0.022198137369220 -0.111745635890522 3.428638188711075 122 112 111
-0.005832952314833 1.414728013971313 3.032374201458403 217 169 131
-0.003033510705057 -0.021613207335296 3.487533523453438 133 120 114
0.107531907079405 0.537213091359887 3.852622784383289 62 85 65
0.158203592518689 0.245462628502736 3.645432185139865 19 5 5
0.157515905246003 -0.190063515950636 3.350315359252800 50 77 68
0.163123437013741 -0.096290647618267 3.411646538237918 144 141 152
0.208406787414451 0.009708391159392 3.490680284139792 145 131 130
0.213153179642725 1.063080509365006 3.519117738927627 222 168 122
0.220068076684838 0.077799465563736 3.547061316876534 143 131 141
0.271508962111135 -0.094916407901711 3.423506338989971 150 140 149
0.281799561346099 1.010907290987587 3.579184831438925 227 171 120
0.259521030746143 1.442742758233424 2.982739159945059 218 170 132
0.347539953639914 0.770113967772386 3.936759330058713 88 57 39
0.307726012490763 -1.545382106629971 3.152147522151664 177 197 221
0.342117304003186 -0.281111436014210 3.333809332876688 72 83 77
0.376372625106049 0.975654432726058 3.661640353113601 221 161 107
0.385631967032112 -0.370728864669971 3.289942681688096 172 133 116
0.469144209094873 0.700665704538700 4.002387901700653 66 36 25
0.391586633786022 -0.322106481265108 3.320275133195936 154 149 156
0.357015280236007 1.455801809493923 2.958705695723948 211 163 123
0.400682637612546 1.373334958027545 3.079619520969412 225 176 136
0.430467081511095 -0.384773351989464 3.301988768730577 116 78 69
0.430467081511095 -0.384773351989464 3.301988768730577 116 78 69
0.501085599464325 0.894120955471277 3.747645195417609 238 182 133
0.442605097109745 1.174120794654753 3.342741732175373 180 124 75
0.481915072101004 -0.129355215765245 3.495209385392250 146 134 138
0.548867984625253 0.774246786162651 3.904047454568250 245 179 121
0.548867984625253 0.774246786162651 3.904047454568250 245 179 121
0.615886646701169 0.808769986039075 3.843334577654558 234 174 124
0.615886646701169 0.808769986039075 3.843334577654558 234 174 124
0.505021171425036 1.355152188499932 3.092255973053248 196 142 95
0.505021171425036 1.355152188499932 3.092255973053248 196 142 95
0.580251275182689 1.237171232892842 3.246428230784650 233 177 130
0.580251275182689 1.237171232892842 3.246428230784650 233 177 130
0.629356204591108 1.309504023961751 3.148088448585616 229 175 131
0.749967911038174 0.953601039681424 3.621384920926234 232 171 124
0.803143420475515 1.123249802082512 3.393875239296444 179 126 82
0.803143420475515 1.123249802082512 3.393875239296444 179 126 82
0.939523649966279 1.096857248299128 3.408956820452748 182 126 79
1.412379641960531 -0.108828235491647 5.086819574829999 209 159 124
1.500077783436946 -0.174076324791978 5.160968485826841 224 170 132
1.467550109972620 -0.081270053277918 5.047583310094646 209 156 122
1.899219541033579 0.007470528424190 4.826671517863749 215 165 130
2.173443774384195 -0.058743463085217 4.927325172576961 227 177 142
2.479750268969350 -0.114180369221210 4.972067128917260 220 173 143
2.048624381923279 0.822211850122307 3.683054318296051 206 160 124
2.229719960718646 0.827355123362020 3.650413913386129 209 165 130
1.027612473484571 -0.304708896056104 1.669306161576893 187 205 245
-11.418636309085262 -7.563801240123868 17.662988224444060 93 110 138
-2.873402639109791 0.451851454729250 4.532338367242422 187 157 129
-4.202168950502886 -0.648852481472020 6.705585521824226 160 137 131
-4.073943244003391 -1.141099040299442 6.884905797225562 139 116 108
-4.073943244003391 -1.141099040299442 6.884905797225562 139 116 108
-10.927278066112542 -7.998381417220962 18.913714055712916 110 119 136
-10.853804158652503 -8.374541974910988 19.405754133305816 71 77 89
-3.015544512688932 -0.231453893887456 5.558334642786715 153 124 110
-1.940559184417102 0.703995931690958 4.154941615482870 207 165 127
-2.034813267731888 0.512656973015058 4.438956840514805 172 129 95
-2.159830329725999 0.254219586453640 4.801951992022764 172 127 96
-2.487876625864590 -0.773829716876953 6.363176601923462 153 134 128
-2.370984442456014 -0.627321176986577 6.117947177036379 158 136 125
-1.978327508242424 0.013287965085397 5.207282059691108 171 142 124
-3.603023885888914 -4.056495123552561 10.821875598706933 119 187 226
-1.133885710060637 0.972974295912909 3.718305370763928 163 119 90
-0.976415329066157 0.711086657988867 4.093176156539524 178 144 119
-0.857039698124283 0.974997446154049 3.672757356562221 165 121 92
-0.643901427030386 1.424056463311654 3.053406246572604 169 126 92
-0.934434548090424 0.463031407691241 4.470818231877281 133 120 111
-0.951706540526125 0.359901240813612 4.615364732867744 138 129 122
-0.767873599765202 0.900620936550714 3.797356939050224 166 124 99
-0.635078433913532 1.049300626422363 3.596668721371366 183 139 102
-0.583933197746451 1.258898369884096 3.295430286172525 174 126 90
-0.627069928228407 0.536811760854638 4.333894045457202 118 109 92
-0.748527183562885 -2.724884605142679 8.897404533017106 136 201 255
-0.140184768905524 1.043079658558964 3.576691843567219 205 157 117
-0.104232627787047 1.410976058614295 3.055955184556209 193 148 109
-0.015267725004779 -3.837048922234488 7.854447259437572 169 198 230
0.142399665181420 -2.889643804317109 8.986397347263955 28 148 200
0.177655478833742 -2.800848143068008 8.948879291471586 12 123 176
0.084146699320065 -0.357724966389114 3.275402828462075 249 187 164
0.084146699320065 -0.357724966389114 3.275402828462075 249 187 164
0.110839707108098 0.883765116188558 3.821844463350011 211 155 106
0.153113816766110 0.543090685930293 3.846931627339657 156 140 143
0.200489402173713 0.536917932329762 3.844547143378205 157 141 144
0.200489402173713 0.536917932329762 3.844547143378205 157 141 144
0.185190094449191 -0.149884886386108 3.383948146494773 128 123 130
0.190950395535066 -0.111520911551496 3.408759763942689 148 142 154
0.190950395535066 -0.111520911551496 3.408759763942689 148 142 154
0.234881463730352 0.238739996155788 3.644935864724427 27 17 7
0.234881463730352 0.238739996155788 3.644935864724427 27 17 7
0.256688635009853 0.393827439214571 3.796121607254314 149 134 139
0.218090741313153 1.303300184378812 3.193048248792350 172 118 74
0.265305609014839 -0.171865891425424 3.378784498692757 19 14 11
0.293166627972033 0.207809132115389 3.638227883270080 145 132 141
0.258206431240471 1.327924386784438 3.175741326895142 155 102 58
0.299270993327534 -0.229975234707712 3.346476158314718 0 1 0
0.299270993327534 -0.229975234707712 3.346476158314718 0 1 0
0.349055151617013 0.188982147238630 3.639095500425410 159 148 154
0.431810600171163 1.300752083400610 3.179100071312415 205 152 110
0.431810600171163 1.300752083400610 3.179100071312415 205 152 110
1.210053647020689 -3.504923338056210 7.883742115904342 183 195 217
0.483009086578441 1.376607348445762 3.077538983272701 210 159 116
0.536620586399593 1.338971170364478 3.105085879620537 203 149 103
0.654788535598121 0.923720236539851 3.669143964869770 237 179 133
0.759506267330750 1.108924947583568 3.437294238084493 238 182 135
0.759506267330750 1.108924947583568 3.437294238084493 238 182 135
1.228435922464017 -0.125100545793298 5.121105105477354 208 155 115
1.288414070592867 -0.160260896162742 5.207514346527328 206 154 115
1.208162391918637 0.031931002471810 4.889244071330482 221 164 121
1.303976986773308 -0.094435102251672 5.069876441803286 203 149 111
1.296247926422973 -0.148332408750004 5.001777889638379 199 149 114
1.257374904075380 0.061065483339738 4.848410814656663 223 166 123
1.444083279011129 -0.205293771640850 5.217566324352176 227 171 134
2.181881721222102 -2.891906963270121 7.256970664131099 194 185 190
1.602103426674135 -0.022758450227755 4.951768113015438 219 165 127
1.998925420129126 -0.872490187131475 6.046134168932381 216 182 170
1.578257048516499 0.073263063261402 4.765010797389579 221 166 127
1.691035429591269 -0.094043689473662 5.051855197896216 207 158 126
2.311191347438989 -2.731727943075955 6.761303469202126 199 192 199
1.666315218264747 0.157934657172255 4.678231808518564 227 172 131
1.880236411517689 -0.093266288334363 4.999671400060339 226 172 136
2.099811680960833 -0.066521548922129 4.944541445529211 228 175 141
2.099811680960833 -0.066521548922129 4.944541445529211 228 175 141
1.505419258931885 1.038833619126522 3.456107824704197 183 131 91
1.834939070864307 0.728467087362328 3.853695870392187 242 187 148
1.853744200467366 0.757434420298473 3.812411931727001 217 168 128
1.919958732004608 0.809470763061270 3.724468667808903 211 165 129
2.145276395390765 0.583458241661701 4.008174337113474 231 179 139
-11.280378643246275 -7.720976813136486 17.659621948786238 34 42 53
-3.939412561809919 -0.546934038739323 6.316601857005809 156 132 128
-3.683139426694781 -0.562243281939456 6.127070811002805 165 138 127
-10.796336837866122 -8.340497972243529 19.315335572493709 68 74 86
-3.177286922581490 -0.337252973246545 5.704837824067686 154 125 111
-3.176143803863865 -0.336882697628286 5.703562072015274 154 125 111
-10.311339076403463 -8.286338396288302 19.476565855519006 72 90 102
-2.773610690792244 -0.192052868967941 5.485431092626856 153 121 106
-2.048464955527755 0.665651452408063 4.215965933997733 204 164 128
-1.767600291556972 0.768779825937602 4.044307052708288 204 162 120
-1.554175638839447 0.950032811895230 3.771243749607475 144 107 81
-1.591433436088295 0.735439939511955 4.061670086739418 214 170 133
-1.578439822276941 0.508704468176293 4.408886946022077 177 132 101
-1.247724590019881 0.697750229903065 4.115372737297005 185 144 112
-1.231946753749485 0.662357333477547 4.187596975313412 179 138 106
-1.168640277908444 0.549465934771826 4.332682575322362 165 129 105
-1.118704637084105 0.332574479163042 4.650773850880038 145 131 120
-0.619650744406636 1.234002117662061 3.316188672658018 169 124 91
-0.557915564189828 1.420227666671287 3.057101992255153 186 141 102
-0.641052412476951 0.920176834533441 3.766279736452836 174 131 99
-0.561511943284562 0.699044774459879 4.082712358316271 148 127 108
