ply
format ascii 1.0
element vertex 723
property double x
property double y
property double z
property uchar red
property uchar green
property uchar blue
end_header
1.257160061702366 -0.241873255605086 5.371071950090642 216 163 123
0.749595780894945 1.343750777528505 3.169089226718456 202 151 108
0.749595780894945 1.343750777528505 3.169089226718456 202 151 108
0.755200527855385 1.334779554393420 3.181819683515187 248 194 150
1.197555972850300 -1.912993250101953 4.470170487648503 198 191 198
0.445946479392622 -0.043587373145416 1.639517675274651 228 170 132
0.965007502937213 1.075354752181627 3.535202801749946 224 166 118
1.325564373434016 0.251113406566579 4.657734578745851 222 168 124
1.235704020952811 0.502118119023743 4.310716283452471 218 164 126
1.075415899018607 0.927429114522800 3.730533757029509 248 186 139
1.843949436291324 -0.794423834842049 6.091647962782175 218 178 153
2.005964217458236 -2.581223138996096 6.354467020785593 189 177 177
1.041785602024669 1.258922038236914 3.264423864441431 211 157 113
1.756015372066639 -0.025382005717341 5.005780545677498 223 169 131
1.177946216273405 1.199745993410097 3.334585069912606 198 149 106
1.463164105252726 0.720379986937703 3.995416092574166 234 179 138
1.225510368955630 1.222489678316168 3.309060295621074 178 129 88
1.302964301900816 1.077246269559001 3.502271783374459 235 181 137
1.302964301900816 1.077246269559001 3.502271783374459 235 181 137
1.429077517050519 1.114908309472944 3.442705074594098 234 185 145
0.997661541342858 -0.555559826676629 2.395723359119159 189 206 250
1.521534320727812 1.031671749373658 3.538785062347305 212 163 120
2.566915357690547 -0.230635224554421 5.270541811815003 211 165 139
0.598293034328925 -0.293170083300752 1.211152158652656 74 185 255
1.678542745177080 -0.911334576731644 3.039746736339354 86 189 255
2.573590106772552 0.224545787761062 4.576886804740276 198 153 120
2.294076219524179 0.731166533868384 3.897513649653787 216 171 132
2.534126014767233 0.500865409813293 4.215402807563535 172 137 117
2.545713978820476 0.482924583186909 4.231850619085924 193 157 135
2.307327743808316 0.847275797972861 3.741135013287443 222 179 144
2.473106672690658 0.703789025882588 3.912228740700603 216 170 136
0.723626586137647 -0.373723475474736 1.133114688602354 68 150 208
2.390853447577729 0.849375422779397 3.731441123920165 208 165 133
2.438114361936693 0.807604521613562 3.794689339962705 215 170 137
-9.264346011172483 -9.018488255883403 18.967055335895449 122 163 193
-2.172117896680853 0.328341505383769 4.745743083793398 172 128 99
-2.168857161918528 0.326820089615779 4.741641430030335 172 128 99
-1.261758667205980 1.154152055875339 3.529281980765621 142 98 69
-1.602584611410789 0.451666909504771 4.547186130606635 182 139 107
-2.008837892330996 -0.391341719130671 5.735227919404811 180 149 131
-1.384844456127224 0.680196228164015 4.206151009783885 196 152 115
-1.633903952319309 0.136843740531574 5.003181495412727 170 137 118
-5.624074690271368 -7.480048046591997 17.494801706739086 172 218 234
-1.256372976160837 0.781682728613064 4.053140126419571 212 166 130
-1.110659719620672 1.096719818789191 3.606503983613640 153 114 85
-1.512829229521498 0.162925282818705 4.950047916800983 168 139 121
-1.486054835952687 0.145762490768806 4.981185228510290 169 140 124
-1.567773333855503 -0.163115958827387 5.438447869436310 184 153 133
-1.296436589943525 0.163154798248645 4.966090390919441 178 151 134
-1.053295003006817 0.778302922222473 4.052028582239987 148 108 83
-0.913863842505694 1.135047075168925 3.543062875371921 159 120 91
-1.021757717142938 0.305932133951801 4.714100374802527 137 126 120
-0.824970702481767 0.897602368872015 3.871445891352222 176 139 112
-0.816352450463552 0.674440837850308 4.186035146929207 160 129 109
-0.901942979047495 0.359391916316364 4.642584068408767 123 119 110
-0.671294006252069 0.966981286987133 3.776242006071511 182 142 106
-0.718965394033674 0.713461447583708 4.121846110096564 156 132 108
-0.481532624989825 0.572110154616727 4.299711085137966 46 78 63
-0.370916039401258 0.883487688610943 3.871384394981368 168 123 90
-0.274367068372879 1.423439107658130 3.110009758139966 189 143 107
-0.300810167408622 0.969917742857788 3.748445621588507 189 142 100
-0.306489251283209 0.674510411797959 4.156060694872880 51 68 58
-0.268605781929893 0.708216860024806 4.107171432872169 147 136 140
-0.197289599635822 1.261763599258624 3.330808152781537 189 140 99
-0.171998609678323 0.198052482106472 3.733435262262492 3 5 2
-0.148488099774849 -0.129209640806570 3.468958733446766 98 92 94
-0.159376685860548 0.924874522784666 3.794605910006610 192 145 103
-0.139994117196698 -0.136371512431124 3.460615031248050 109 105 106
-0.134326696073685 -1.081255967501998 4.260945068653764 173 143 132
-0.109004544120733 -0.133998055625118 3.450000568709189 112 108 109
-0.106959712420539 -0.160156323319912 3.426598188129805 92 90 91
-0.130866011298439 -1.079615958718543 4.303617756277183 215 166 151
-0.104805748699564 0.327815602350720 3.792912272958552 103 86 78
-0.104805748699564 0.327815602350720 3.792912272958552 103 86 78
-0.099469877735872 0.287400321840212 3.757890251690948 143 132 138
-0.094268825124758 0.411677667549554 3.854605710350953 48 24 20
-0.080875770548776 0.289758403149073 3.751897004030374 141 132 137
-0.071990991222462 -0.107839333396824 3.450697703957118 110 108 109
-0.067745013404371 -0.505463705401599 3.509719148225465 226 170 147
-0.069684840019025 0.121658499949844 3.621867710055621 46 79 62
-0.065221285729532 -0.121159374940143 3.441484554478090 106 102 101
-0.046945586861489 0.289328568357578 3.738640649952017 135 125 134
-0.026902805537756 -0.088442658603778 3.450746630405877 119 113 113
-0.026902805537756 -0.088442658603778 3.450746630405877 119 113 113
-0.009982647834228 1.416164642410771 3.092899313219977 148 100 62
-0.005114191102074 -0.049440512736897 3.478006896846314 4 0 0
0.016102166674292 0.126810385686707 3.598661220880518 146 140 150
0.060983552984279 -0.067497534711754 3.453428936721016 10 0 3
0.083623511852710 0.729749563525793 4.058769264835425 69 63 49
0.083183822510169 0.527476851445291 3.891440509947246 112 124 110
0.073476727874680 -0.319851251413860 3.265872759422442 56 30 29
0.094846418628682 0.086462601296582 3.561648849595251 146 140 150
0.113704973814114 0.104074613378060 3.578404122319997 139 132 140
0.113704973814114 0.104074613378060 3.578404122319997 139 132 140
0.110643681645380 -0.344259398700104 3.265058508784684 86 87 91
0.121283944678729 -0.164912629088682 3.383053952046085 54 60 60
0.135577587152378 0.210462922940320 3.649120164180357 99 78 73
0.157222283235248 -0.126634499164688 3.416565975114577 145 142 153
0.157222283235248 -0.126634499164688 3.416565975114577 145 142 153
0.166238984493717 -0.068188361908680 3.452185341530279 8 4 3
0.166238984493717 -0.068188361908680 3.452185341530279 8 4 3
0.200779513893927 0.458525011758480 3.823904774342357 155 138 144
0.180210837003936 -0.214558711217131 3.352027094149315 48 69 62
0.184280668676158 1.207520173985743 3.393270423676937 161 107 60
0.193265083934155 -0.218551985290857 3.347616960267601 35 77 63
0.258989801831743 0.202987894048666 3.661074035578631 143 133 141
0.256422531909943 1.140527835558016 3.475379551577038 222 168 124
0.255229310983117 -0.085315759755960 3.452278846841022 150 144 154
0.252828014937247 -0.228395625813872 3.354811060351590 56 83 74
0.252828014937247 -0.228395625813872 3.354811060351590 56 83 74
0.262143253511318 -0.367432239220941 3.404740830648044 3 0 0
0.266247750501213 -0.346511896897233 3.278209103065862 4 2 3
0.279165224217624 -0.221364624525661 3.365825199381423 14 27 20
0.271392706742295 -0.339386800945488 3.164019541527311 56 37 33
0.319125517239331 -0.242759776653989 3.362434671644769 44 82 67
0.326216245267475 -0.230185628832080 3.376798363250406 103 92 90
0.436409055333257 -0.052931647095927 3.546840055871017 151 140 148
0.529451782799775 0.706082758353908 4.051971545679703 96 60 38
0.414061063143130 1.470055846998844 3.017204893037646 217 167 130
0.474178737310801 -0.100541685848514 3.396019936899402 164 153 159
0.588281873925539 0.679711317912810 4.100404696201916 103 65 44
0.461270377862518 1.327665432564849 3.208958788976760 217 160 115
0.660970147562990 0.709542383446982 4.050395815351712 251 181 122
0.631605490746717 -0.095730589632794 3.662743049324837 151 130 127
0.584852403938315 1.216263452943688 3.356410385142893 202 145 100
0.634668257769081 -0.128817966882058 3.616686507879455 170 159 163
0.577099837591387 1.305722462662959 3.231433007677092 120 69 42
0.627484246021429 -0.341516857464326 3.500996474902049 113 121 97
0.632655700262822 -0.376816750983326 3.494381603115764 163 156 163
0.669924199312122 -0.119991761202949 3.693430075583414 176 164 168
0.679067312093571 -0.139159364131992 3.697197422833813 176 164 168
0.658357492576087 -0.322118221205103 3.551203262314716 71 54 38
0.692547138371926 -0.381315858763161 3.564466440840574 168 162 164
0.637415018736753 1.305245684373576 3.227755657509719 221 162 118
0.779999271881661 0.824390663948413 3.885537541850490 174 122 82
0.653553865154491 1.296422778502451 3.243133586123979 154 104 69
0.657532803348238 1.339902222603658 3.178264047243983 234 180 136
0.666319180288844 1.328671511891956 3.193732680235478 229 172 127
0.977951737448032 0.285749440970068 4.628768851114153 225 166 122
1.254898547827533 -0.276602609478469 5.401658320114857 230 173 130
0.758896974875352 1.357763547737690 3.148340838818065 229 177 140
1.341687090054083 -0.223209330069902 5.335119274059160 213 163 126
0.868263278897586 1.149871431845905 3.430585099664396 236 178 130
0.862515787594050 1.170562016068452 3.403684577170722 226 168 120
0.918822132937168 1.070119617120392 3.544159897718888 204 146 100
1.477416700662592 -0.496246371942426 5.675554403684875 210 161 129
0.898943334031386 1.197861428275546 3.357715142026833 134 82 45
1.462397397657610 -0.191375302107357 5.279933165871992 203 154 121
0.916731390492007 1.272989236982903 3.280092733787413 234 175 131
0.921592801381235 1.266721413834612 3.254231662488797 212 158 112
0.921592801381235 1.266721413834612 3.254231662488797 212 158 112
1.191547969086221 0.695523192355977 4.043660350390749 241 183 143
1.674180340792343 -0.325577794057730 5.486559106722991 225 175 142
1.888774284240654 -1.559095177563011 6.100718135039373 195 188 196
1.032980689022078 1.227617964757099 3.320580765963764 170 118 79
1.615675572090710 -0.108783519391947 5.153161140519162 209 159 126
1.042233790328630 1.221265087926312 3.323203019044823 186 134 87
1.030243685126819 1.245823948553381 3.283610705796264 222 169 127
1.023438990495516 1.295298618655639 3.214504869915006 216 163 119
1.023438990495516 1.295298618655639 3.214504869915006 216 163 119
1.079288378637107 1.205225903592096 3.340523005882666 222 168 124
0.802170925981891 -0.590514346491709 2.468183772430860 194 196 221
1.688044845862891 -0.073369945943410 5.095539550609959 215 163 126
1.767380698168934 -0.060097606840663 5.059764635104533 212 161 130
1.538487919964682 0.420711584936232 4.402300739393209 227 175 138
1.538487919964682 0.420711584936232 4.402300739393209 227 175 138
2.043609522270565 -0.421781583133760 5.553103013780647 210 166 141
6.965418013334296 4.839662752959413 18.428139057634041 227 174 130
1.801911587259547 0.184352098362148 4.716327278366871 232 177 138
1.345436080938292 1.188045736782898 3.340822217818980 203 155 115
1.566074645829113 1.013089201139350 3.569547762747294 181 136 97
2.033865750894680 0.509965811474715 4.241379927202297 217 164 122
1.624775285902250 -1.701033156283945 3.324517262907830 189 210 241
2.559356168013918 -0.210914309867777 5.232893045295808 216 170 144
1.844878167706020 0.901550697381427 3.699547230159896 208 164 127
2.163363285854764 0.576420208674776 4.130464059304940 237 184 144
1.630115962867500 -1.557647970132110 3.057984063768650 186 210 244
1.252834762987926 -1.130298859187011 2.240461322206104 186 210 246
2.586193222241886 0.301777368935366 4.480756450031167 183 140 108
2.228372729281359 0.812284557219818 3.795051240447775 218 172 139
2.518350434652846 0.483928557738207 4.221303087277143 185 151 126
2.650956282723498 0.366871513705514 4.368542309818522 197 161 135
2.296427245535332 0.843705141206669 3.746505886788114 219 176 142
1.922321346525308 -1.347163197357624 3.121912956679504 184 209 249
2.348298568771973 0.805687805322402 3.796013154763856 216 170 136
-2.588573749508109 0.367235622308167 4.705405569690448 161 120 92
-2.586613455263744 0.305896572356962 4.775381998987453 162 122 96
-3.872508042843763 -1.437083933336083 7.294492107772414 133 111 97
-9.002815480713867 -8.716968881039838 18.536892229651858 125 149 173
-9.002815480713867 -8.716968881039838 18.536892229651858 125 149 173
-8.949636102593736 -8.494964600023771 18.564142756298093 97 113 128
-2.054814179892657 0.609561544202855 4.331549069635404 206 167 134
-1.937445267538317 0.681660778315873 4.221075302677962 206 167 128
-2.109630266737772 0.166858652582127 4.970141429502413 156 123 106
-1.641491120248073 0.903549614794718 3.898394222411395 154 112 87
-1.641491120248073 0.903549614794718 3.898394222411395 154 112 87
-1.891182079697131 0.451541447890265 4.552521941291294 175 130 97
-1.629863858554192 0.875717281380115 3.933628253067211 148 108 82
-1.555465854043815 0.795969462957825 4.043896128544734 215 170 131
-1.682813905313953 0.564925294274691 4.387401697433461 170 124 91
-1.755769300431421 0.354399134205830 4.691985655283799 178 133 102
-1.403556935373081 0.994626279692155 3.760951341858998 149 109 83
-1.363486791543230 1.054014428777371 3.677842613672847 148 108 82
-1.681577042744724 0.100318067816018 5.046005243218431 168 139 121
-1.321880518884724 0.835474432771124 3.980157683220976 216 168 130
-1.092544689453494 1.313768516130626 3.298688659826992 167 124 90
-1.429092329426816 0.584099965334948 4.337720718747275 172 131 103
-1.283595821130819 0.876144043505280 3.926751975551008 212 167 128
-1.065976776988245 1.323458599922283 3.279237314493748 174 130 95
-1.272661174043413 0.830786549737779 3.979566934203900 221 173 135
-1.272661174043413 0.830786549737779 3.979566934203900 221 173 135
-1.148701559761348 0.996995844473951 3.743440791837181 173 129 100
-1.281675382409998 0.554397408429704 4.384121570453011 182 142 116
-1.142138741689534 0.645558655598821 4.243492247621962 173 131 106
-1.250824466394644 0.292459529620341 4.755259048656930 161 135 122
-1.359835703076350 -0.093125769756121 5.308343987732409 161 147 138
-1.283304701385920 0.002345906254170 5.160987386936067 139 130 125
-0.954790193397933 0.701074852745248 4.159793446452786 174 138 114
-0.938572590144025 0.725794260200553 4.125830072744641 176 142 115
-0.938572590144025 0.725794260200553 4.125830072744641 176 142 115
-1.121683463024054 0.075257472218875 5.049827753872660 144 131 123
-1.054382276691681 0.191126620516249 4.890388587080379 149 136 128
-0.986874368394755 0.401898132765597 4.581203275077620 133 126 120
-2.592926689861900 -6.066527685238513 12.138493488250441 15 24 31
-0.965910642236490 0.321626134033049 4.686517725329805 138 133 127
-0.797542002563324 0.729435877813752 4.106188382783802 159 128 107
-0.621665157973945 0.923825647961268 3.826722758711367 186 146 110
-0.687845003334166 0.587253061682856 4.301789912102527 128 115 96
-0.441932357966461 0.852655615206218 3.922258104764832 157 108 67
-0.463940899781326 0.660661632218821 4.185598438580769 95 79 63
-0.410035974503423 0.928279170900021 3.806354723838161 190 147 105
-0.306517418632242 1.029809270019725 3.665797747623529 199 154 113
-0.296844161806476 0.874588095509561 3.879033690234453 193 149 112
-0.229597183092324 1.446203805425739 3.073306609795469 173 129 90
-0.247041200440537 0.928104184963818 3.800466075879044 164 120 81
-0.532565396321030 -2.798279630459744 8.836393651889893 91 171 234
-0.203316969571413 -0.055623879434009 3.556446529758274 3 0 0
-0.197598908081328 0.301376425258406 3.834076063584583 133 118 113
-0.152112304105008 -0.147276615278539 3.466337123960414 106 100 102
-0.140906785832451 1.049636577321987 3.622998919410934 169 121 81
-0.091342051187570 -0.360399415256791 3.303323551018615 239 177 154
-0.053122155349066 -0.126620435835559 3.433881887133513 117 108 109
-0.031056235218107 1.370702160404369 3.164405953482817 197 149 109
-0.035585102859578 0.280524130363746 3.734660146483600 147 137 145
-0.034699525920448 0.328832106159323 3.764868492867539 135 115 106
-0.025897767289896 -0.353612318192190 3.282038362555963 97 113 113
-0.016081001832917 0.156698595953134 3.631157844957422 146 138 149
0.030933988172875 0.116673834405042 3.591375678201245 147 141 151
0.023052521620432 0.961570722914206 3.729006516791833 196 143 91
0.020581613741922 1.165517340341593 3.462274543928969 224 173 130
0.024295150689811 -0.030160167082203 3.487610257488396 134 121 113
0.030038360140601 0.100965802993103 3.575859433646460 147 141 151
0.043718944491942 0.312321102328197 3.731935025146979 79 56 48
0.045264022935215 0.974971250562609 3.723488982485473 217 164 112
0.046873014106508 0.102455076655891 3.575749494730343 146 140 150
0.061071265986183 0.087427378585810 3.566547721326542 146 138 149
0.065961603541532 0.072227095816934 3.553034422944359 132 127 134
0.072295779660399 0.282250656136923 3.703479842125537 149 139 147
0.065077735493183 1.414306185149246 3.104848941213624 200 152 112
0.073984467773765 -0.149307492977023 3.393319583753596 126 124 135
0.089468546301498 0.935254158102164 3.786002825391091 213 160 116
0.115040812548156 0.226445680293422 3.658484861675829 139 128 134
0.120139951009667 0.116043363846220 3.579616880146033 113 120 89
0.140586317899927 -0.162975005435154 3.380810643267697 11 7 8
0.142622835554765 1.235991226347891 3.356600138147138 190 134 87
0.191171733782691 -1.028666528647861 4.304945125472244 192 156 144
0.171790263950153 -0.121163941842246 3.412576479496035 145 142 153
0.176455172602826 -0.172276871364276 3.379425701201009 2 2 0
0.209700075650332 0.970110337478035 3.715877476495993 214 160 114
0.189331040105495 1.222506877959769 3.371335347779683 200 149 104
0.220779773432796 0.321039825643026 3.731083614448923 138 116 105
0.215704630975824 0.993334700191118 3.689549208637361 183 127 80
0.236472827869363 0.195096100361013 3.652011947756468 102 88 75
0.224957688771293 1.139676040560486 3.489646411138849 207 153 107
0.263245241830601 0.214345984470021 3.662531819106639 142 127 134
0.263245241830601 0.214345984470021 3.662531819106639 142 127 134
0.272797379721709 0.966737857153285 3.719022080012642 221 165 114
0.285553769940608 0.247258549883285 3.689976538698226 145 132 139
0.306749470233828 -0.042309149483547 3.500711369983109 150 140 148
0.306502912621969 1.149560568761928 3.469661641964630 213 157 110
0.278347950150343 1.448087752531637 3.051200021814006 212 163 122
0.328997522925770 1.158350986574093 3.453321381307649 217 164 120
0.393167287676396 -0.035979153748163 3.533658662397402 152 145 153
0.367853927319533 1.275769584231848 3.285916849220609 177 125 85
0.367853927319533 1.275769584231848 3.285916849220609 177 125 85
0.414128974459741 -0.041776544117945 3.540181533344316 151 141 149
0.496317879798475 0.698264936004987 4.083759415043987 162 126 112
0.562496943912166 0.706812161694464 4.072969301167531 100 62 39
0.562496943912166 0.706812161694464 4.072969301167531 100 62 39
0.560682077960397 0.744285654891920 4.015949294298014 209 147 90
0.561802910387912 0.758362399158702 3.991707365982390 199 136 83
0.477967847791232 1.401049785191709 3.104927077870060 231 179 139
0.598633537084272 -0.094480282867688 3.634932467539839 102 74 62
0.530910478287808 1.330403374265694 3.198661944508744 232 179 139
0.653347697558686 0.816227982523223 3.907860962198611 197 145 95
0.733732664137572 0.740503351193502 4.014822711188685 239 176 125
0.680403145108013 -0.161457287529805 3.683362825730165 141 108 101
0.647065337442369 1.257963899506224 3.294377643165804 197 143 96
0.655198151488738 1.236465763786938 3.322182561950472 216 162 116
0.636930981734479 1.384342228547748 3.116323754164933 128 78 43
0.766118959078036 1.182577502396643 3.388085125897806 178 120 72
0.877062531457953 0.884172510785903 3.808217832181859 235 177 131
1.404369092905253 -0.707427765142959 6.020969311417245 205 160 129
1.258437670247639 -0.259653731506674 5.386476796571847 229 170 128
1.258437670247639 -0.259653731506674 5.386476796571847 229 170 128
1.472711048789587 -0.887603843315824 6.248742631331429 214 169 136
0.966995101881748 0.678374198474563 4.079671699420613 235 180 141
0.906648504484051 0.872607478330717 3.797136980683123 232 175 130
1.186765486517428 0.165544539674248 4.792903652634768 217 162 121
0.910484798187854 0.988858000859233 3.662035746038483 239 183 134
1.083639179196487 0.686271474419063 4.062794280405071 226 169 126
1.017892283954896 0.912464248911014 3.747242276488394 246 185 140
0.937140270671455 1.293511496609406 3.225080956827036 178 129 89
0.937140270671455 1.293511496609406 3.225080956827036 178 129 89
1.485255984865063 -0.031655869620326 5.045778816174772 213 160 120
1.406595437360531 0.659077598669817 4.069963524948465 234 179 138
1.768078857978680 -0.039763866596719 5.034019544930557 217 164 130
1.614461192294930 0.423749627204580 4.407283246969961 209 156 112
1.801772234478602 0.242764389147436 4.633594997197661 229 176 136
1.319422487681529 1.179119065910952 3.358448935721840 205 156 115
1.547092061794495 1.034272253768165 3.549289365615294 203 155 115
2.624786537723488 -0.576443228058365 5.709620973558625 225 187 168
2.353627595099793 0.120933921377753 4.767161186308567 212 163 130
2.353627595099793 0.120933921377753 4.767161186308567 212 163 130
1.899727857018404 0.834554001099341 3.793954318529313 218 172 136
2.126006282829841 0.529007722644959 4.209303573575239 212 161 118
2.007473590210444 0.700489039991010 3.969825819419283 234 182 143
2.346134087719725 0.211023770168277 4.626963973842866 211 163 127
2.120428722822376 0.569132668441989 4.143100032430024 238 185 143
2.562381197464726 0.103211335976454 4.757629371475535 210 165 132
2.253535369543350 0.603547673387558 4.093026012180654 234 182 142
1.664317696661211 -1.160231452902931 2.520836475428241 183 208 248
2.605258344998195 0.672220613065355 3.941926221948223 225 180 147
1.889376195282865 -1.287578223604591 2.846576079143775 181 206 246
2.419422586684237 0.913393406049124 3.649612087475569 209 164 125
2.428939189073951 0.900230024589359 3.659267525358301 213 169 132
2.620839901059002 0.675168951766130 3.939054283746606 222 176 140
-2.600128906105264 0.388234487657984 4.665884540134806 166 125 95
-10.489284541495964 -8.361765412912932 18.884370001383747 69 77 88
-3.028398763772842 -0.212732099389704 5.516566689751658 155 123 108
-2.057211179821603 0.802756627532538 4.063928402056027 143 98 75
-1.846625042617383 0.973845210361681 3.810124955018850 142 100 76
-2.008177896110826 0.597032079843332 4.351045587577007 205 165 129
-1.793422292956403 0.784558762372806 4.071766056438904 205 163 123
-2.033813514246737 0.335729324766778 4.719319445126899 177 132 101
-1.733840910754054 0.487289921574120 4.500230059667600 173 130 98
-1.389647692829276 1.093020650602721 3.619935789527804 158 113 84
-1.382759371334504 1.061145027591282 3.657819274337185 140 99 71
-1.374114285237071 1.005116675821911 3.749621147412471 159 122 95
-1.557210064772531 0.577483400961946 4.377524634564966 173 128 97
-1.907806363940686 -0.174601648492222 5.441788542729476 179 152 133
-1.996210957425384 -0.354840926113301 5.735269723608015 176 147 129
-1.954050369684454 -0.316782117665409 5.634724827137705 174 147 130
-1.693764507775912 0.153713669949089 4.975501241359427 166 137 121
-1.114156586786320 1.305175676100068 3.313442979114145 162 119 87
-1.773985754780222 -0.268485701172049 5.577885547003941 182 153 135
-1.760107150046254 -0.323935004442274 5.662121910086343 183 152 132
-1.171272612823170 0.863011002635199 3.942294153670682 174 137 108
-1.072495432193771 0.949657462798616 3.808238818475950 156 112 85
-1.160849945149222 0.687947165391444 4.186442393724485 185 142 110
-1.276562209205338 0.349187580397903 4.689302435892628 158 134 122
-1.091695304730379 0.739431746373253 4.101229983955727 175 139 115
-1.276579215926048 0.118340339803768 4.986948654322841 171 145 130
-1.132708914917132 0.386338855925274 4.621895546364008 146 128 118
-1.083358241567213 0.527835352808333 4.415017303908367 168 136 113
-1.004342145643221 0.721806808222708 4.132530766321317 166 130 106
-0.625511954350388 1.422924750827566 3.122571337338714 169 125 90
-0.775718287370783 0.880649691842074 3.896979374889390 178 139 108
-0.617834678303357 1.417059801195873 3.135858564517349 175 131 96
-0.831856745293467 0.649834451090582 4.240943588167840 151 128 112
-0.786928646731230 0.793804236135148 4.020790602528614 171 137 110
-0.707330833405759 1.020927632583510 3.700837531659243 195 153 113
-0.632703782114959 1.186104560013598 3.461844245192174 183 142 112
-0.650540385068707 1.091585632187145 3.590644158593741 169 123 90
-0.627805829936587 1.037026369271603 3.666026019904091 197 152 111
-0.490427569731222 1.494632655729115 3.022113146042006 177 132 93
-0.455296572511373 0.940295445194852 3.796879459367770 186 143 101
-0.408633317375311 0.659274260518509 4.183370939623025 141 134 141
-0.215665190878716 1.443638504583707 3.078434973784894 183 139 102
-0.250094875808309 1.079330533991648 3.592098458623836 175 130 91
-0.174942572140764 1.353765366034928 3.197591443890645 184 137 95
-0.433347272798781 -2.993662859786658 8.798113586826275 73 172 231
-0.149229443531236 0.908698900001065 3.824330644130029 199 154 113
-0.147215553239821 0.937116715947709 3.785222981704207 180 131 91
-0.118456802575652 0.229876785127864 3.728150163329392 56 87 71
-0.105056314799558 -0.181079165613939 3.403621107319001 124 127 146
-0.085145389660644 -0.118970438611430 3.449354571016147 111 105 105
-0.080688612937860 0.968025832947753 3.735026678791594 194 145 102
-0.041462963740609 -0.742932149320760 4.002696141679534 81 105 115
0.016736207514357 -0.181506333569641 3.374757232438617 132 133 151
0.027012723236447 1.202118173752401 3.409264170566085 218 165 123
0.030062576584198 0.116964159504651 3.593412847738232 147 141 151
0.043136175920342 -0.166934412484565 3.382869187914411 126 125 143
0.047799677737271 1.425114297953820 3.092835727466637 193 145 107
0.058067622480984 1.389670559174777 3.138565523163088 169 122 80
0.068840197844802 1.406270297553016 3.118072148112556 194 146 108
0.106143094098954 -0.287567250994468 3.288579451299617 163 151 161
0.116538494683137 0.073763685241595 3.553143534747480 149 142 150
0.136780510079727 0.255315038876090 3.680200326226575 114 114 86
0.171066283691844 0.436279368977191 3.808240879181164 155 138 144
0.164651029562395 -0.208825637831596 3.353055254953813 55 76 69
0.170481933522774 -0.156431936020854 3.387977323589852 68 85 75
0.193157500878581 0.034774567947535 3.526791971030042 149 141 152
0.193157500878581 0.034774567947535 3.526791971030042 149 141 152
0.207656033727009 0.215809244563502 3.660107280482539 125 109 112
0.222281932998084 -0.014756219154864 3.503517294773906 6 3 0
0.231979482842161 0.210249027059448 3.656709521030876 87 81 65
0.246405232117827 -0.004812760486876 3.513359224172974 13 2 0
0.254422551681597 -0.246979574307097 3.344155342319402 36 77 61
0.276087565459595 -0.015968578416213 3.562762903325041 150 143 151
0.292013801705315 -0.000512745666031 3.521087215107567 155 148 156
0.292013801705315 -0.000512745666031 3.521087215107567 155 148 156
0.292003014098241 -0.020023747358766 3.518175572043232 154 147 155
0.292003014098241 -0.020023747358766 3.518175572043232 154 147 155
0.315674411914914 -0.098380283103619 3.460591562889110 141 131 142
0.315674411914914 -0.098380283103619 3.460591562889110 141 131 142
0.279002028070478 1.447450732469337 3.049685563996054 205 156 115
0.324374074350702 -0.033299628602131 3.508269037002529 154 147 155
0.325032087220260 1.146545977012512 3.468100105384274 223 168 114
0.353486856064477 0.215250666824492 3.695844642360464 156 143 150
0.362100762470386 1.012300171803739 3.654884912477701 204 144 94
0.355367415517157 -0.327436883496090 3.450656632932117 156 150 160
0.377937717641134 -0.049072477862238 3.522147105041778 157 150 158
0.440255216775067 0.791592128437887 3.970111470249053 230 165 109
0.440255216775067 0.791592128437887 3.970111470249053 230 165 109
0.399200816528453 -0.054518359467263 3.529529374156973 159 153 157
0.399200816528453 -0.054518359467263 3.529529374156973 159 153 157
0.388786976779356 -0.238199403555052 3.392770904794578 22 11 9
0.388786976779356 -0.238199403555052 3.392770904794578 22 11 9
0.482178639030876 0.777363820558777 3.986239876599940 227 161 103
0.408665051319173 1.329651802802280 3.207588430596995 205 152 108
0.408665051319173 1.329651802802280 3.207588430596995 205 152 108
0.509968784273275 0.819595214093411 3.911772819890462 226 166 114
0.476450660923234 -0.040745346007881 3.589131444004196 159 146 155
0.401007569890412 1.469319982368424 3.011576806906193 210 161 121
0.486485798575963 -0.001330599250636 3.604984848569986 164 153 161
0.504734932832699 -0.018953069165300 3.611980500014806 162 149 156
0.506903175342846 -0.107342151311117 3.548276619072983 163 154 159
0.523613601710638 -0.009509098638439 3.627914430007923 124 103 102
0.489130215422753 1.199480996725684 3.381704945876876 215 159 112
0.523629860804747 -0.070701760762575 3.589197816941742 160 151 156
0.622359553415834 0.842533966104225 3.879151796512390 228 171 118
0.604031177754344 0.050575037743899 3.734670607580930 101 115 79
0.657104704231959 -0.068867802178297 3.724957455210610 76 44 33
0.669291764530925 0.936848839281170 3.736634040893681 241 180 133
0.566884349344966 1.397026429125859 3.113229674349292 231 178 136
0.717290314934453 0.810008573917010 3.908976743845817 219 163 116
0.751785075552003 0.880768564241036 3.810062412603403 231 177 131
1.053835242056723 0.210804793545918 4.728011543905897 214 160 114
1.430118086417923 -0.693419720749463 6.006876353483471 208 163 132
1.193101960292026 0.304907098819355 4.590067650349236 224 163 116
1.568212595557152 -0.682641209831992 5.982454542269456 209 165 136
1.668806699609055 -0.788448132293178 6.072606888014502 217 176 148
1.436560384391913 -0.085778010530135 5.128262087715176 207 155 118
1.473696231268237 -0.063466752966875 5.116474678371527 210 156 118
1.268341419339761 0.485841970430611 4.326738551115699 230 177 137
1.000115052356781 1.246537512211140 3.294307324416682 212 160 113
1.346613175452715 0.601047653364309 4.154102253307763 236 182 144
1.078197852413370 1.276093702998908 3.239329693997328 184 132 85
1.419525023103682 0.698187151877399 4.020888257654034 238 178 141
1.730092101122286 0.172809076504451 4.743956998296622 221 166 127
1.425152692931824 1.127787607585471 3.415551723311749 231 182 142
2.148393523862730 -0.060437275736786 5.062295000046183 228 176 139
1.466777708346247 1.089972164795107 3.457015404847647 216 169 127
1.466777708346247 1.089972164795107 3.457015404847647 216 169 127
2.306757694523444 -0.325737597742867 5.391577042983747 211 165 139
1.906148974192899 0.417286928979340 4.395256994833924 226 171 132
1.474291537247004 1.164174926356802 3.367605213766629 204 161 126
2.655677291536275 0.056925689389845 4.799152350776557 214 168 135
2.268951493061489 0.718808350990540 3.921478488414917 221 172 132
1.578166909182219 -1.362877088117495 2.681437609524416 185 211 246
2.234235969017042 0.843551170016175 3.751768525198994 214 169 130
2.555803333649457 0.515138908556635 4.166056481631779 177 146 128
2.466932421268198 0.772226977312496 3.827933657671278 217 172 139
-4.564280807684835 -1.297483495196691 7.104917505931748 139 126 133
-10.480880040682482 -8.361420510608459 18.869908263513114 69 77 88
-2.712700469635989 0.099375415293787 5.080464164251468 163 119 94
-2.715212237914555 0.030099150599343 5.140982914265810 152 115 96
-3.206142098077284 -0.592669455516642 6.089504592319807 157 128 110
-1.780723838785991 0.959523832280627 3.825900887740020 134 96 77
-1.731180261567813 0.929614474357020 3.859248011552155 148 112 90
-1.731180261567813 0.929614474357020 3.859248011552155 148 112 90
-1.731180261567813 0.929614474357020 3.859248011552155 148 112 90
-1.846934698601288 0.667070195667863 4.238268044045858 205 163 125
-1.557534412746735 0.936669311644074 3.847502805496575 154 112 87
-1.744380118398217 0.564815748052533 4.375479242617044 157 110 80
-1.744380118398217 0.564815748052533 4.375479242617044 157 110 80
-1.586955885271304 0.764708488234969 4.086751806429419 213 168 129
-1.904567999715853 0.078738367426576 5.081795484061457 160 131 115
-1.549866846753488 0.702772434875618 4.186890912738397 209 166 132
-1.465343764210617 0.781919136161556 4.063536304022751 211 167 130
-1.983385869570977 -0.288809152635203 5.614064923458887 181 152 134
-1.375412259426637 0.596642488555098 4.318709542880410 181 137 110
-1.265495162698680 0.854421178006464 3.970606489543165 220 172 134
-1.120621048123698 1.115440418930896 3.575321638931158 156 111 80
-1.633879577733971 -0.208858499404799 5.478147910850867 186 155 135
-0.993698866214529 0.680152007685527 4.183434361842439 179 147 126
-0.988922419662166 0.645798923772171 4.237465270874404 179 152 133
-0.896140085041498 0.909638956795054 3.861196538738454 169 128 100
-1.085469688657365 0.274738827672321 4.771657458089244 152 139 133
-1.085469688657365 0.274738827672321 4.771657458089244 152 139 133
-0.904610738281270 0.490649696395677 4.458126476872560 132 122 112
-0.615610658413502 1.458799814060092 3.072117593549302 174 130 95
-0.757413168568794 0.867452684792345 3.909823232407292 183 142 110
-0.625684418132609 1.104270561505711 3.574442330508024 153 103 68
-0.666012585405208 0.751337631135053 4.076146897009675 164 134 110
-0.572303268858708 0.649091082563213 4.208295073430139 133 118 95
-1.005715473192930 -2.206490255341270 7.387475202545403 143 193 254
-0.912450754652486 -2.123255881290366 7.120687476043454 143 193 254
-0.469614602809943 0.886335654063273 3.871618709058216 152 107 68
-0.417751935358581 0.851589534808068 3.890851947282145 159 111 71
-0.267129678535734 -0.406376318219717 3.640192229477108 128 147 153
-0.454093045546855 -2.761827110162709 8.839670690455295 129 188 254
-0.184186364673962 0.795727617559555 3.977450621062526 108 87 70
-0.020740646404712 0.567586126007884 3.930596185892968 64 89 68
-0.016595441451167 -0.058845421634545 3.467872319095088 19 1 0
-0.015099081482692 1.104532083323531 3.545999547101908 211 162 121
0.000082382024765 1.470402788601742 3.024414735408629 204 156 116
0.010782275066998 0.303772062641392 3.733778433588694 113 90 82
0.014418390564262 0.157832495297318 3.625142246985391 136 128 139
0.119673300667544 1.352578418897967 3.195016299429959 188 139 98
0.157815763007316 1.050416404703829 3.600612023108096 184 131 81
0.155563040148763 -0.143327263256413 3.402886178279255 136 133 144
0.171884527605033 0.186113801264846 3.633710727311143 148 138 146
0.152229394359394 1.317929804652386 3.239933802969391 212 163 122
0.171613250909392 0.094118697673371 3.569429198862228 133 126 134
0.181669953884018 0.238533873206049 3.672672105215848 111 104 85
0.200712291084625 0.076526074094092 3.562410473065588 20 0 1
0.227257067139881 1.120729521008530 3.508733728240948 222 166 115
0.264155036490163 0.008707314175238 3.519311552055344 153 146 154
0.264155036490163 0.008707314175238 3.519311552055344 153 146 154
0.270900503095410 -0.121818771116166 3.449462498099802 146 140 150
0.317024340290185 0.719215181970694 4.059829810326894 165 143 145
0.253588630448653 1.373726459685602 3.150563974434858 181 133 93
0.353529264883060 0.209247749589192 3.689614510154239 157 146 154
0.327352874284259 1.281385565536096 3.287855877392965 164 111 67
0.357495566315713 -0.000714339905415 3.540837804118142 88 68 69
0.357495566315713 -0.000714339905415 3.540837804118142 88 68 69
0.376174420701612 -0.048402698548938 3.527554609335010 157 150 158
0.397198708253458 0.360149104513832 3.808750238858989 127 129 92
0.389972758575574 1.023185661149851 3.636705816858381 160 106 59
0.438144765327467 -0.030248690642298 3.598676944979197 159 143 146
0.450200408317422 -0.033079970848049 3.559148060004029 151 146 152
0.511877384267759 0.716386328962437 4.066610104384559 100 64 40
0.521196267203097 0.739159982846405 4.024947580989065 131 76 45
0.551102517682948 0.681461611526819 4.115314529269128 90 54 40
0.562735220722602 0.810436858300934 3.933199789964704 243 180 126
0.586236178608840 0.797238937334114 3.931009559314978 239 177 126
0.464809939092009 1.417581081506071 3.086194950422119 180 131 90
0.491549646228492 1.299350472866167 3.251004907071849 235 180 139
0.612309906659561 0.296751739653480 3.905033384236394 73 48 28
0.621097479656507 0.795575128425211 3.943975703087080 239 176 125
0.544684976109985 1.239016504931711 3.331183057913305 251 193 145
0.631181910531436 -0.017943326419393 3.718357286694515 108 101 73
0.676460002920813 -0.513896490618531 3.490982738769235 143 127 130
0.679909583949121 1.308404516245219 3.231862926464081 224 173 130
1.430127520269322 -0.692897558519185 5.999436693718478 208 163 132
1.238870503719523 -0.081419922230301 5.132970970937734 207 152 111
0.870159016908235 1.061920063269398 3.554616098703390 217 158 114
0.791922531332039 1.331432083401933 3.185231882909338 222 168 124
1.202352904275887 0.257607468621835 4.666344512092574 224 165 123
1.580026216449081 -0.723494887476445 6.023474586852879 216 172 143
1.473742572971756 -0.062751961717142 5.112366440858735 209 155 117
1.144300922486822 0.748634678937025 3.968837248292117 230 171 127
0.992453053691520 1.134659070194526 3.435831367870281 224 170 123
1.367129352672831 0.239783301033529 4.661073455142804 218 163 122
1.505377912940165 -0.051962776247685 5.067859492771874 215 163 126
1.051975452329118 1.197457683433019 3.347978452088310 220 167 125
1.097959143805211 1.137860885607029 3.435492949274632 186 129 86
1.724556634278145 -0.154455520982644 5.209429897663661 230 176 140
1.721073389102960 0.084593079940832 4.868366752929350 220 165 126
0.972774595557444 -0.415710590672726 2.493535849844725 222 203 205
0.981818018467718 -0.406705451145005 2.454263602162315 223 204 208
1.460973870560788 1.108735017250944 3.452780337204902 231 178 136
2.452307688087539 -0.489547951685133 5.621898424792523 199 162 144
2.260040750421585 0.157631326315322 4.720554055660558 212 164 128
2.402177136479748 0.032400783629676 4.863734402727269 216 169 139
2.501195183212556 0.174465419501329 4.662009477106613 209 163 130
2.239281495818678 0.542916368300272 4.174746166495276 204 155 114
2.294974513702786 0.787197671558888 3.837216183946596 218 172 138
1.840959737407641 -0.476532855370175 2.810175927769156 184 206 247
-4.034663767803828 -0.920682508484628 6.585001360123152 148 128 127
-4.024438643311616 -1.156938712497395 6.821023890305832 138 116 105
-3.551137717173976 -1.356688689366116 7.124233922989813 142 123 116
-2.042543332322667 0.777136541683048 4.105911248344494 140 95 72
-2.571162619775552 0.061876008816850 5.355234221483533 144 115 99
-1.978282340216824 0.676402831824924 4.233126190745353 202 163 124
-1.871038279002436 0.813253151869629 4.029292244998522 139 97 73
-2.338396973220425 0.082852241062897 5.066962436416647 149 121 107
-1.679518732987690 0.639850609657577 4.246809446297707 206 163 128
-1.476304446825861 0.905223905396671 3.892574797326435 151 107 82
-2.168083360853726 -0.378587034835593 5.742566076442398 174 147 130
-1.476745764879719 0.861382553787435 3.954123244467852 212 167 126
-1.325463161068285 1.075239457252605 3.635208058153410 160 116 89
-1.325463161068285 1.075239457252605 3.635208058153410 160 116 89
-1.839342419316530 -0.229671484091755 5.529745260084910 183 155 134
-0.983987117848444 1.183101030046698 3.473543314072476 184 141 107
-1.291787629323022 0.362413391169636 4.668970019822784 155 115 103
-1.039346026251437 0.926712078986097 3.840279101801845 159 118 90
-1.021317105953504 0.953398538442660 3.801092221442649 173 129 102
-1.324019084123191 0.092892942479274 5.038857172722787 170 147 133
-3.352703736459692 -5.620772859158679 12.836157304426180 103 138 158
-3.329235944797299 -5.390255527241690 13.013515379383998 104 170 204
-1.151836273559777 0.271954845647934 4.772632636429765 156 136 127
-0.878571406314449 0.992537750622273 3.730102057245738 176 129 99
-0.804564585271416 1.112919604849789 3.570995625522869 137 92 63
-0.886838767448587 0.790555214759665 4.023708814364346 168 127 105
-0.818142871861917 0.754589340852589 4.082098454349755 176 142 115
-0.818142871861917 0.754589340852589 4.082098454349755 176 142 115
-0.663234941308139 1.165989698899908 3.480967741727838 159 115 88
-0.637476888091362 0.882336309747738 3.888665311427374 184 143 111
-0.492629449333496 1.477636031214238 3.052085514985385 146 98 62
-0.455205491374847 1.436125095118853 3.102963954839517 178 130 90
-0.415588786177092 1.287155492657321 3.309348024932242 174 127 85
-0.300620018409761 1.021363014367341 3.674844033112205 187 142 101
-0.303413843092292 0.961427212971235 3.759840035249044 190 143 99
-0.173856481191865 1.270271159300573 3.323338836055983 190 142 102
-0.153093594547232 -0.195316569860922 3.427402104341906 124 127 146
-0.318223469871081 -2.793911811374784 8.671483424436035 9 122 178
-0.315163987631507 -2.893969436209006 8.735792280523572 28 143 198
-0.315163987631507 -2.893969436209006 8.735792280523572 28 143 198
-0.289303134375528 -2.723965186830613 8.736602424685493 105 175 235
-0.098636905915561 1.456469326329476 3.048936659333320 195 150 109
-0.085026761591411 -0.041631455812409 3.513226040742217 8 0 0
-0.055490314833994 -0.342023134738558 3.296246753799874 189 179 177
-0.022232006286358 -0.110945083103740 3.444509746831856 122 112 111
-0.004390989093735 1.441098920608053 3.071931579558242 217 169 131
-0.002956951769093 -0.020435662986777 3.506996895723333 133 120 114
0.108700696477459 0.543321555006171 3.895428046555580 62 85 65
0.159665181974317 0.248651631094442 3.677615696344323 19 5 5
0.158388635331565 -0.189678788853790 3.366689427950028 50 77 68
0.164161346851066 -0.095473126944084 3.431471090468560 144 141 152
0.210011632562080 0.011014525413700 3.515096440188258 145 131 130
0.216530147296536 1.080753474114073 3.565276359755842 222 168 122
0.221874522193768 0.079497332526364 3.574584588146895 143 131 141
0.273391930342719 -0.094355967505823 3.446009593256765 150 140 149
0.285984199166901 1.027523523868504 3.626880586342957 227 171 120
0.264709258698245 1.470305815887355 3.022832481363872 218 170 132
0.352168827275986 0.780310833669010 3.990604695158424 88 57 39
0.307087889356815 -1.554392304100725 3.147327769195534 177 197 221
0.344126528597311 -0.282035310030218 3.352562263199955 72 83 77
0.381788224676183 0.991612623862359 3.712692462014030 221 161 107
0.387706228139309 -0.372401468398641 3.307699648283802 172 133 116
0.475518906372997 0.709393289856407 4.058649733043492 66 36 25
0.393883681683790 -0.323539644440626 3.339553042150992 154 149 156
0.363626716654112 1.484029483863315 2.999148438592791 211 163 123
0.407607658813803 1.399728917542990 3.122206572920277 225 176 136
0.432919868020493 -0.386912469270147 3.321072477382662 116 78 69
0.432919868020493 -0.386912469270147 3.321072477382662 116 78 69
0.508339556797642 0.907995977305796 3.799982531875966 238 182 133
0.449586201288544 1.195397260460867 3.388562996182576 180 124 75
0.485920471786389 -0.130227931776586 3.523484257886612 146 134 138
0.556656519712405 0.785128790072750 3.959839865862688 245 179 121
0.556656519712405 0.785128790072750 3.959839865862688 245 179 121
0.598300284691438 -0.520023347453643 3.825173703924417 178 145 128
0.624839940822014 0.820795354897184 3.898766944597571 234 174 124
0.624839940822014 0.820795354897184 3.898766944597571 234 174 124
0.513489147645890 1.381215482341223 3.135188585787759 196 142 95
0.513489147645890 1.381215482341223 3.135188585787759 196 142 95
0.589531769746196 1.260485370267675 3.291994381588914 233 177 130
0.589531769746196 1.260485370267675 3.291994381588914 233 177 130
0.639624101690719 1.334793450168751 3.192657063512401 229 175 131
0.761438964247043 0.970077501751500 3.674677198565990 232 171 124
0.815863950888284 1.144402704345315 3.444032945176638 179 126 82
0.815863950888284 1.144402704345315 3.444032945176638 179 126 82
0.954633626971563 1.117790350310061 3.460536822949986 182 126 79
1.439449684996933 -0.125094933688662 5.189447026482855 209 159 124
1.529839764271616 -0.192802211906414 5.268403041974202 224 170 132
1.496209136276326 -0.096598995610712 5.151105356971170 209 156 122
1.941174612558109 -0.004178632170679 4.936083882586965 215 165 130
2.226819301246422 -0.073438691154267 5.051766095456811 227 177 142
2.546739973771460 -0.131524394525598 5.109346800207555 220 173 143
2.091980737251380 0.840443446032869 3.760015906666218 206 160 124
2.279923005061603 0.847222284816678 3.732032589222906 209 165 130
1.031444560353296 -0.293180575395972 1.673949029687914 187 205 245
-11.116743341785876 -7.494134142869029 17.194877890323379 93 110 138
-2.891060507377797 0.451435014876124 4.559361010427027 187 157 129
-4.225339762454716 -0.674487563516757 6.737498095402390 160 137 131
-4.068880629268206 -1.165646196246606 6.873811223322798 139 116 108
-4.068880629268206 -1.165646196246606 6.873811223322798 139 116 108
-10.706295706617427 -7.979086835618138 18.528083991230599 110 119 136
-10.621618127294361 -8.344448055441898 18.988492193396784 71 77 89
-3.027027789086995 -0.245622110487164 5.577250073507378 153 124 110
-1.957113994960614 0.709480984166835 4.189780559933058 207 165 127
-2.051244971257193 0.513580983967153 4.473334787447279 172 129 95
-2.174348674929978 0.249231488152751 4.832488194948465 172 127 96
-2.500287471919423 -0.799873535400599 6.390254916507512 153 134 128
-2.383208636692829 -0.650426199536184 6.145288170325707 158 136 125
-1.993041411169404 0.002499844910434 5.242647753681298 171 142 124
-3.595206051019067 -4.120694460395957 10.794423386370601 119 187 226
-1.145109721503207 0.985767193820724 3.756228801797908 163 119 90
-0.986418309437039 0.717434945151378 4.134059022529933 178 144 119
-0.865588994603122 0.988251898988339 3.711202866639304 165 121 92
-0.650726114615420 1.450114551445306 3.091933916228737 169 126 92
-0.944258051976502 0.463048512420319 4.514637404567450 133 120 111
-0.961637361582802 0.357362264633258 4.659683401954622 138 129 122
-0.775812701959544 0.912024876206152 3.837637577278601 166 124 99
-0.642103634649922 1.065037114754144 3.638188797942212 183 139 102
-0.590077489084669 1.280219579396485 3.335153415946802 174 126 90
-0.634322408787520 0.539078589641433 4.380123312765879 118 109 92
-0.758838973485549 -2.812724436448429 8.999004628579218 136 201 255
-0.141470636413402 1.059386844860108 3.620820006083585 205 157 117
-0.104250384280441 1.437279818652689 3.096047689748784 193 148 109
0.143211676888823 -2.997850790816940 9.135127751545216 28 148 200
0.178894831003060 -2.908467999105992 9.102713596025517 12 123 176
0.084403748779292 -0.357963577588178 3.285408108258523 249 187 164
0.084403748779292 -0.357963577588178 3.285408108258523 249 187 164
0.112316315132246 0.896314245149288 3.871803125045866 211 155 106
0.154811340067329 0.549419210989283 3.890531015289258 156 140 143
0.202710577323393 0.543290266373125 3.889052340674626 157 141 144
0.202710577323393 0.543290266373125 3.889052340674626 157 141 144
0.186324007848298 -0.149444798940159 3.402385583916354 128 123 130
0.192184929959113 -0.110894060464512 3.428677676944040 148 142 154
0.192184929959113 -0.110894060464512 3.428677676944040 148 142 154
0.237114267429413 0.241862587895110 3.678343143469476 27 17 7
0.237114267429413 0.241862587895110 3.678343143469476 27 17 7
0.259421339480674 0.398212153172766 3.837069406430394 149 134 139
0.222201110567228 1.327190481093747 3.235558079505929 172 118 74
0.266969327017626 -0.171783987835460 3.398622717825365 19 14 11
0.296020668135100 0.210508397462309 3.671488661622463 145 132 141
0.262832975089836 1.352853887908363 3.219362158918963 155 102 58
0.301055800186505 -0.230326025624395 3.365362467696034 0 1 0
0.301055800186505 -0.230326025624395 3.365362467696034 0 1 0
