ply
format ascii 1.0
element vertex 727
property double x
property double y
property double z
property uchar red
property uchar green
property uchar blue
end_header
0.097112729933784 1.201537742841207 3.382312950181023 248 195 155
0.094507545383241 1.208277446183396 3.375995657683878 249 197 150
0.297756383619514 -0.356301119818474 3.282613385936882 192 162 152
0.205866629773539 1.049120131127851 3.578272640861358 237 181 134
0.095045475302034 1.216370949270833 3.366197203470938 240 189 146
-0.217332524744384 -0.180407712411788 2.055406176397013 34 8 9
0.039615380097293 1.303546337031623 3.249150662213317 149 100 60
0.284812760939555 0.943260781605080 3.718065579617399 246 188 140
0.146080125698253 1.148247819802509 3.450407256882393 152 96 45
0.128707576308526 1.175736199977860 3.417564335016236 247 194 152
0.150421490843518 1.145825601880823 3.454354331749101 243 183 133
0.308856654776012 -0.354648687538099 3.284977608140241 224 187 168
0.359806987867401 -0.017426097745820 3.522647929022265 33 12 17
0.130603975790742 1.183444053175317 3.403684633266480 246 192 145
0.358285734806961 -0.032620411702403 3.511795961966721 26 9 17
0.293389341972566 0.947637932707157 3.714625083790854 252 194 146
0.134814091762838 1.181579603568801 3.405940328328893 155 101 55
0.134814091762838 1.181579603568801 3.405940328328893 155 101 55
0.320294415938108 -0.360661602713494 3.285139287594554 182 157 153
0.136252025536658 1.186186292791395 3.401773523914228 243 189 142
0.116091298881210 1.224528569186916 3.349758760062121 243 189 142
0.159230839852784 1.165421657913630 3.427965281793377 252 199 155
0.145777957052283 1.190995642888518 3.393727737646739 250 196 152
0.387144305374369 -0.031319965710706 3.523868297957948 33 8 4
0.356023882217846 0.894241105934569 3.784089558393692 234 176 128
0.356023882217846 0.894241105934569 3.784089558393692 234 176 128
0.077380462481778 1.306443726547997 3.242983453167654 237 185 146
0.146054726757422 1.224336806342654 3.343541313090729 238 185 145
0.275799897476586 1.043849399345483 3.583073523829019 233 177 126
0.370680266927506 -0.373828441417551 3.295550177814613 184 156 144
0.421846710056595 -0.038670631128958 3.534043774095871 178 157 154
0.144646569148394 1.235253020522023 3.333895173422293 243 190 146
0.218071596411116 1.138155058689540 3.455332570808680 236 180 143
0.152294598296153 1.244572464802188 3.330800904140963 126 73 29
0.152294598296153 1.244572464802188 3.330800904140963 126 73 29
0.172001127515075 1.224339256548381 3.348026530637872 255 197 160
0.167047101642423 1.233045372297148 3.337630671183420 142 90 53
0.235161260800771 1.138846092292023 3.457453498318440 231 179 140
0.181229343562218 1.215144774787626 3.359613568354976 250 195 156
0.216567111020071 1.169552354636044 3.417608022726475 234 180 136
0.296208022940807 1.058918678886227 3.556302246802743 238 180 134
0.467787746247618 -0.052526163707902 3.550537988059367 182 154 150
0.173129184812854 1.251215031212302 3.311276343584840 112 62 27
0.173129184812854 1.251215031212302 3.311276343584840 112 62 27
0.481236221375421 -0.051513473919120 3.556819606027464 178 154 150
0.203227776384986 1.218190493748369 3.349345802046559 243 190 150
0.186004546330219 1.244012748592226 3.320333171020650 250 198 158
0.251882684592311 1.155700347535593 3.434951456436789 253 201 154
0.181551166779799 1.254694864155829 3.306836556695005 138 88 51
0.181551166779799 1.254694864155829 3.306836556695005 138 88 51
0.439465636547556 -0.396276791197041 3.321301899814363 198 162 146
0.229050574541974 1.197076313013759 3.376988303221829 255 202 158
0.512364638461476 0.813623175712996 3.878895849898626 255 194 146
0.265294588128329 1.153076961001088 3.436506928304348 246 192 148
0.265294588128329 1.153076961001088 3.436506928304348 246 192 148
0.453142287993830 -0.410131148065409 3.325993338888352 229 180 163
0.408821783197686 0.959537684246179 3.692300503891803 240 184 135
0.534361217690648 0.791140112786278 3.911387287129525 240 180 130
0.514918735373774 -0.075396265900652 3.563822873251907 61 35 38
0.266790451759428 1.162208823008998 3.424406522027931 239 187 140
0.190002071470232 1.266918437871130 3.286802961105218 132 78 40
0.526689123128953 -0.064689111973665 3.580512417274934 69 41 37
0.238789270307148 1.207352982011943 3.366947391047757 163 105 57
0.224404657958630 1.224145086506446 3.341377541460698 94 42 20
0.196355473244709 1.266483663270013 3.288465742460365 253 200 156
0.495757066670951 -0.303578756317085 3.407200620124783 166 161 157
0.385188653565029 1.047340601613258 3.571272726834799 140 87 43
0.263725227276469 1.213020913311133 3.354800121864626 237 187 150
0.243882048029916 1.242388935849551 3.315416864987235 122 73 33
0.243882048029916 1.242388935849551 3.315416864987235 122 73 33
0.478692956226502 0.937237775453339 3.702892926672052 241 187 140
0.534647177709824 -0.441609332526963 3.366162706001284 225 179 166
0.378917350300145 1.084106445824402 3.524319001564633 237 180 127
0.599931869948550 0.802096373122732 3.883690907041630 211 158 116
0.278386899667700 1.224928132802402 3.336839015330516 110 59 28
0.240311904505091 1.275590638957121 3.269973245602185 254 197 154
0.498252153533787 0.947298112316663 3.700522267166150 250 193 148
0.558737317224953 0.868659481095097 3.796938975905293 245 187 141
0.333323626251527 1.170933672367759 3.398712318711105 246 190 143
0.506815362825373 0.960050911790720 3.681332100735154 241 185 138
0.522254533351312 0.957677283798436 3.680836429384629 249 192 147
0.263567401221939 1.304511982166734 3.231345631578954 242 189 147
0.381127430618368 1.166659187847400 3.404800724404136 226 174 127
0.282836284020465 1.309885352696474 3.227057204914723 162 107 66
0.580728105982195 0.949982328071668 3.695239089869749 247 193 147
0.295270740260079 1.314855143812116 3.217811655536169 129 78 31
0.386671114649679 1.201551915741683 3.359678770389705 185 133 83
0.651271668808343 0.888641672891853 3.762906614151834 234 182 135
0.394764167500709 1.209120734775774 3.350697583849754 244 190 144
0.394764167500709 1.209120734775774 3.350697583849754 244 190 144
0.313257129158964 1.309425568901955 3.219051250413457 255 204 164
0.311692038976717 1.313028623142888 3.216590049008978 135 82 38
0.757525602795106 0.767850245974923 3.919370606596794 230 169 124
0.595620781241416 0.972606943932615 3.649694073024723 248 191 146
0.394461434635796 1.247400097102443 3.298712966592931 232 177 136
0.752500425861349 0.824772719190809 3.847762358663858 240 184 137
0.473312355046057 1.156175710566096 3.410739699833944 247 189 141
0.612259578037997 0.996906775640394 3.622134604799774 255 202 160
0.415877644999361 1.233481757489082 3.312849452108691 115 61 33
0.385114248021790 1.299062592670704 3.228398594745034 152 100 61
0.385114248021790 1.299062592670704 3.228398594745034 152 100 61
0.429071541729167 1.257048737048766 3.282997261319987 245 192 152
0.636229984733636 1.033127186376918 3.562236027401155 202 145 102
0.428852693349508 1.293728565929351 3.232523056484529 245 192 150
0.790830613621131 0.891019409466728 3.755159041100100 235 184 141
0.595105365382951 1.114947577405509 3.453765075723875 245 187 141
0.418344834306693 1.326367018144877 3.189034516458174 239 193 160
0.404248705174034 1.359203062947133 3.145643500129719 149 97 57
0.564208211051375 1.187180622972475 3.365555591211608 158 104 60
0.512134296274390 1.271010309224418 3.255158391937021 241 188 146
0.458524428926948 1.340626440483081 3.169429516730201 129 80 47
0.636916880067525 1.153611375352396 3.406440557569732 223 170 126
0.653092779844694 1.144481194952695 3.411967233183002 255 199 154
0.554442997811130 1.264589351921345 3.260616354697831 144 94 59
0.554442997811130 1.264589351921345 3.260616354697831 144 94 59
0.586617522936137 1.228573341081482 3.300531606550176 240 182 142
0.494249221069287 1.365225134965053 3.127813082680083 248 196 159
0.792509217039832 1.071100806367821 3.507218514031285 150 98 58
0.792509217039832 1.071100806367821 3.507218514031285 150 98 58
0.638546619235341 1.250826594079699 3.282437823966549 235 183 136
0.664145713196794 1.221517629320322 3.305089611833025 217 167 132
0.873222074203992 1.013184549970732 3.584169391207709 246 189 144
0.711374183637861 1.182668125694426 3.360555394612161 241 188 144
0.611752686700947 1.304718396683358 3.201394415072632 237 185 145
0.568492052083780 1.361623764786849 3.127990262550773 240 190 153
0.617186044276036 1.343028986882378 3.150511144769129 216 168 128
0.600583684374642 1.363223093153576 3.119022493155713 227 176 131
0.734751032277422 1.228588723869454 3.293337766649901 236 187 146
0.932934155444930 1.045360038539893 3.532225433605149 121 69 30
1.055394983527679 0.955127511544181 3.646327193789481 221 173 137
0.613238056188161 1.416446746723548 3.048705525459043 138 91 49
0.877143953300653 1.163140812539779 3.352966226654349 180 131 91
0.803896132942507 1.266439690055513 3.233092643154734 221 172 132
0.803896132942507 1.266439690055513 3.233092643154734 221 172 132
0.780714841277972 1.303819236103729 3.187675428509361 239 188 145
0.952880283191880 1.172518456171610 3.358596268164388 215 166 125
0.807457862366424 1.306776564364076 3.181273618926347 133 83 48
0.931349237389357 1.190751798941188 3.329584225603958 163 115 75
0.937655914136356 1.188319968847697 3.336861324514159 222 178 141
0.923069314497595 1.223712501027241 3.291228429718607 235 184 141
0.936101212660877 1.237059914691816 3.271503467879127 229 178 135
0.869737729223601 1.320698305058412 3.156569951405482 223 178 137
1.214150323894183 1.046020493602045 3.508619879658220 214 164 127
0.921228097172093 1.347499553764724 3.118887565286842 155 107 69
0.926594299571813 1.345728814793484 3.119091811029978 224 176 136
0.932255725824814 1.348054683003076 3.116255229145167 208 160 122
1.300497534842081 1.044496262815587 3.494020904109428 194 148 112
1.169078200483269 1.179651851309077 3.325156413210365 203 160 126
1.096390174130857 1.242214248329302 3.242086142431162 227 179 139
1.737932634470603 0.700693133361340 3.945235544822418 229 176 136
1.223022496330540 1.139951579888990 3.373677743508599 225 177 137
1.362379659975973 1.120087748513897 3.386707034961132 186 142 117
1.261449783702649 1.215653560973854 3.273194747351219 146 101 68
1.384790116945399 1.121098060934060 3.391353277074416 196 152 125
1.497840274021477 1.075536943487342 3.432694001983534 188 144 109
1.424930179978191 1.141815940074979 3.356073864787405 189 146 114
1.424930179978191 1.141815940074979 3.356073864787405 189 146 114
1.451437559631062 1.155270446673610 3.334554976719367 190 146 117
1.451437559631062 1.155270446673610 3.334554976719367 190 146 117
1.569892783790675 1.075261533112104 3.428737770701354 169 120 79
1.509319100536071 1.172415797327765 3.309981939814449 152 107 76
1.391170993644977 1.268739856755807 3.193194388338894 156 113 79
1.511036790641070 1.179270229460882 3.300806129332227 201 157 128
1.521856428884510 1.183571915083411 3.289140033221218 207 164 132
1.528094723491659 1.212457721646950 3.253994839448239 204 165 134
1.759857914698543 1.048199829289419 3.445865351932997 217 173 136
1.935803837961229 1.020500031763723 3.471951763486799 218 173 140
-2.478166010562091 -0.026810594355524 5.242733446706207 189 158 130
-2.187359103269530 0.396887832203836 4.625590132354342 119 78 60
-2.124934599523656 0.308448682186420 4.750880076082282 116 78 59
-2.078871257986771 0.467323305352394 4.510760922524033 174 136 117
-2.071193131842650 0.463477274963590 4.524216754910979 140 97 78
-2.195974230785545 -0.078987224082328 5.318568918479780 157 117 92
-1.901965629108601 0.416096412075698 4.616692072735132 129 91 70
-2.010744355650422 -0.167260581564778 5.449446473273136 167 123 98
-1.832358038869223 0.474939007050561 4.531075448307716 139 102 83
-1.811420200159223 0.509659126788001 4.478733497705400 137 96 76
-1.783840326660354 0.575700023488555 4.378279874157861 133 88 65
-1.737861871238135 0.506656791935451 4.480834874513140 138 100 79
-1.713989362282289 0.645415358357188 4.273560881570769 140 103 77
-1.690223725063863 0.804883152566605 4.045888058662443 145 106 77
-1.733962409490518 0.527506015720382 4.464700383676977 136 98 75
-1.695828569391082 0.587578126880015 4.353485122345828 138 100 81
-1.678484783751721 0.599912671296370 4.330753500594399 130 92 69
-1.653956281395687 0.552032566071625 4.409073531965720 148 113 91
-1.654293005791789 0.486503770092146 4.502825548305795 150 105 82
-1.640840127181706 0.606511976709341 4.330849717646355 150 115 93
-1.619831542629393 0.718861282754044 4.161297197083626 147 107 81
-1.611214864762135 0.625273287661466 4.301725844148569 150 112 89
-1.600265441256645 0.573764917269350 4.373581909904297 153 117 93
-1.563939795917391 0.725558420223938 4.154318288543732 133 93 67
-1.576905070858276 0.536331525641252 4.443936703131710 145 105 79
-1.543018168939095 0.727148887734323 4.148828290574143 152 110 86
-1.526102172867768 0.667961082227746 4.245800545611982 161 116 87
-1.506357238912443 0.733175730625565 4.140320197317312 163 121 96
-1.493223274813513 0.665890871916695 4.250739018732778 149 113 87
-1.508343127516861 0.226182782840712 4.884036110843550 168 121 91
-1.451767193216282 0.308020834393135 4.761883040341193 182 140 102
-1.402212773266256 0.775777695083486 4.080482272723839 160 119 91
-1.367662712348941 0.698051328026387 4.193570646161931 129 90 61
-1.366775893169292 0.704492079591780 4.188966277826469 165 128 101
-1.368582255758953 0.514554305637687 4.459889160802394 207 159 119
-1.330205302009937 0.151283107179378 4.980660748548024 175 130 97
-1.323221903946276 0.903058018616224 3.881193477060986 162 123 94
-1.316036553785389 0.725299598383078 4.156440032076034 156 117 88
-1.309468888835267 0.720775059108617 4.152924107199924 141 100 70
-1.293344222011323 0.710250927259025 4.176651374782606 176 137 108
-1.285708885176013 0.680162959861551 4.218284871867977 163 118 89
-1.283575757964441 0.692884076812748 4.215533058359575 172 128 99
-1.278886825118049 0.603017958478906 4.344392445700660 220 172 132
-1.280104098387251 0.609672480596846 4.342599017643339 214 166 126
-1.012074278521179 -4.259221210347361 9.940125749308800 134 160 161
-1.258660069714982 0.669096917676081 4.225771370725694 171 127 100
-1.241303153177806 0.456213562680817 4.518413963389882 210 166 129
-1.251508699703583 0.809438230593004 4.025869702676708 176 131 98
-1.236574889610603 0.618402232508169 4.304407683190309 213 165 125
-1.234841465108577 0.656264736712641 4.258039103214575 159 114 83
-1.203948837639337 0.350517329323639 4.701315119674783 176 133 101
-1.228010541111726 0.887683792004236 3.927624655349099 165 120 89
-1.206620584842099 0.596524524462616 4.338835207353571 212 164 126
-1.189159275323694 0.365433772004081 4.686445414988778 182 143 112
-1.214009089842536 0.912211761768114 3.868469052373319 155 112 80
-1.203792778477668 0.827574357095041 3.996222655825543 183 138 107
-1.205294733473760 0.918902604232562 3.869586741793174 145 102 70
-1.205294733473760 0.918902604232562 3.869586741793174 145 102 70
-1.185873747663621 0.919421684154792 3.861943002125116 172 129 97
-1.132984485896278 0.590488372322391 4.361144345280210 183 143 117
-1.137242323430199 0.736746392521375 4.118023122036416 163 122 94
-1.126054559642421 0.682957771731554 4.199044854859870 207 164 129
-1.099641908175404 0.563246708613898 4.384028179717838 118 80 57
-1.092236297363862 0.571578596142751 4.375136156145727 159 121 98
-1.063208974562990 0.267651416773151 4.818557186317858 175 135 109
-1.077137036234781 0.459928662002792 4.544201232646643 197 154 120
-1.078395430211651 0.571222750504970 4.366055280791006 121 79 57
-1.070775669683342 0.504121832811186 4.459019762115304 164 123 93
-1.040506115786329 0.306867381393958 4.739813820145336 179 139 113
-1.089046897515089 0.811151596784519 4.037557402516641 157 120 93
-1.062462237134675 0.670507337711961 4.224683103236365 191 147 112
-1.082394483078978 0.862862007688462 3.943531851151183 158 112 79
-1.030337370770936 0.471759362445670 4.496651472608724 157 116 88
-1.060050350611648 0.832002086819041 3.990447691897121 165 121 92
-1.048783935516840 0.770060639388717 4.078628960592618 141 94 66
-1.037635978075304 0.688847253066247 4.190557086534901 173 129 102
-1.038599514690225 0.771829890279624 4.077927927238950 171 124 94
-0.999929276021792 0.669223778461737 4.234996792012177 184 143 113
-1.019069881762420 0.880645210982284 3.918560176256059 174 135 106
-0.993369088685719 0.830349736029676 3.977147872377020 178 135 101
-1.012193619743165 0.994755257957661 3.757462540261113 171 128 94
-0.959397332669498 0.640303565149264 4.262834170343737 188 148 122
-0.977376275676361 0.765033368551880 4.078669130819685 179 136 102
-0.970726881370501 0.769703651323789 4.078501457445309 169 126 92
-0.978710536123105 0.851066079534604 3.954720126885342 140 99 71
-0.981738441019858 0.923871447517163 3.856339443769626 184 138 104
-0.973691959608183 0.933667014047115 3.839486103652116 176 132 97
-0.881676767834026 0.369770144257841 4.638036538097417 174 148 133
-0.896034802532051 0.495734761424935 4.454111502879130 178 142 118
-0.888166764647188 0.555987980286406 4.383627571000275 172 136 110
-0.952706585295459 0.964090856620709 3.788931705737765 180 135 102
-0.885860759382839 0.594619390378538 4.313501123478419 183 146 117
-0.956244439052162 1.011183535003356 3.729705081853920 178 133 100
-0.916153158952221 0.791352973259805 4.036435250435465 162 117 84
-0.921731750802183 0.843024021602038 3.972637289515523 178 138 103
-0.835718740958926 0.360885003204775 4.651769805907511 146 124 111
-0.905320026355717 0.776197237087059 4.061170708136725 201 161 126
-0.856964747427570 0.501738124891252 4.446156365506334 183 149 124
-0.881155294675886 0.666721738731913 4.217486160010402 177 137 111
-0.877665088260339 0.680166024347734 4.191166498281623 185 146 117
-0.863092305167624 0.813332112688464 3.998460890209042 174 134 99
-0.756972350308092 0.293372075543140 4.731239886856764 137 125 113
-0.838923230130334 0.874882337843933 3.917117174525033 183 142 112
-0.759493068188233 0.506214000384357 4.429866648553051 171 139 116
-0.809448704159580 0.784695390611402 4.053603219024525 186 142 105
-0.835856546955676 0.925874892672412 3.840644945869562 179 138 106
-0.719949938229387 0.476672021458316 4.471604759150719 159 130 112
-0.713106040404050 0.558596071789955 4.354039735783434 159 125 98
-0.760312188468324 0.783550117879410 4.035948847136528 208 160 122
-0.805265735005281 0.979520917805266 3.763726652299319 154 113 81
-0.806126395081962 1.038002355580753 3.684975070490549 189 143 107
-0.614415409631672 0.243588566025084 4.780353098104537 132 125 115
-0.786906242652100 0.976836301184867 3.758199359830292 195 152 118
-0.737452557208769 0.822729965079370 3.979625293779550 194 149 108
-0.621023924374750 0.391602409289846 4.575295591324089 137 124 107
-0.645807123849660 0.508718481119282 4.443838593542828 131 108 90
-0.678321821841416 0.693234568078609 4.158494314271989 141 97 68
-0.741937250974775 0.954630514040073 3.790733061669091 188 140 104
-0.741937250974775 0.954630514040073 3.790733061669091 188 140 104
-0.756420342639014 1.041568105669225 3.670133103933891 193 147 111
-0.613026267620583 0.500366164252063 4.430994762076612 146 125 108
-0.637766022132303 0.602562919447220 4.281133842735869 172 137 109
-0.654187994285344 0.672695314631597 4.181437587665903 143 96 66
-0.754181637545773 1.069139905261932 3.627056189769329 113 67 34
-0.601669162184550 0.505710567024930 4.419979212137120 147 126 107
-0.638597298098160 0.645394516864373 4.222388014349306 182 138 103
-0.583746567140183 0.469852070179468 4.463511842932689 144 127 111
-0.583746567140183 0.469852070179468 4.463511842932689 144 127 111
-0.655270955792234 0.744504004011482 4.076736278209224 182 139 104
-0.747403292890274 1.109123021343702 3.576044969181020 185 142 107
-0.707786091396418 0.988674326923646 3.749635396493404 199 157 117
-0.724912026027317 1.049187233765987 3.655067151474758 193 147 113
-0.591900335693951 0.682165266764501 4.164566091601229 194 149 110
-0.701903520089492 1.101686541375453 3.581469632479078 195 149 113
-0.581431241189556 0.697213643478055 4.137672163620150 187 145 107
-0.644215132040070 0.940902258173503 3.805730127362358 186 136 101
-0.568262219449419 0.751558301491859 4.066535148463856 177 135 97
-0.445683702124143 -0.488014953149151 3.529953531066091 226 183 166
-0.568040769273898 0.766719262405737 4.043366812425171 184 138 102
-0.592351026133846 0.849085141418917 3.935098359916606 206 158 120
-0.579004594772979 0.828168581898465 3.959601385077262 197 152 111
-0.579004594772979 0.828168581898465 3.959601385077262 197 152 111
-0.430785475919497 -0.475941527787878 3.511740274837861 245 187 165
-0.639855794865130 1.052709668500894 3.653684240027670 191 147 110
-0.574828077776730 0.868183418481456 3.909439057756262 204 157 115
-0.360687360943946 -0.671119674876973 3.792334027604235 80 104 114
-0.438333522740673 -0.175627281776819 3.749728699407307 40 28 16
-0.572142251159175 0.973605853626268 3.758052105028320 178 131 89
-0.415632343821145 0.042082301917087 3.883287422770734 126 107 90
-0.415632343821145 0.042082301917087 3.883287422770734 126 107 90
-0.418534755081168 0.279792983022630 4.092773850351819 105 127 114
-0.418534755081168 0.279792983022630 4.092773850351819 105 127 114
-0.617648540303727 1.129083622531214 3.528861053210464 187 142 103
-0.544745108742347 0.927617108256754 3.817806587863019 205 155 118
-0.390739459076408 -0.444779798001308 3.467131145661255 253 195 175
-0.590746312604399 1.066396280023788 3.626863298542975 150 97 63
-0.408361664692119 0.381927185681656 4.158405290735894 50 76 63
-0.397705060366771 0.007776801260636 3.833484782443907 141 132 135
-0.388283927336265 -0.260248000353627 3.604005700210256 16 6 5
-0.612223691211419 1.166217602135586 3.482113476502948 202 158 121
-0.296432982024439 -0.671074845981587 3.777258999620885 85 113 127
-0.386457361475631 -0.070715247284951 3.747109838503405 26 20 22
-0.521155846043794 0.936013591748182 3.808611617244310 135 81 43
-0.521155846043794 0.936013591748182 3.808611617244310 135 81 43
-0.303107349804968 -0.625649446612067 3.709816377825434 63 83 92
-0.390690197673001 0.391799868423024 4.124578646222311 53 84 69
-0.366945443761357 -0.251510299032273 3.580229112731311 22 14 12
-0.580461022881543 1.148866512364383 3.505790334194674 168 122 86
-0.347033531940097 -0.406360110732780 3.434597603226544 1 0 0
-0.361487601515520 0.405099389189504 4.089469232364840 48 85 67
-0.360226151065423 0.413119921117186 4.096100756674411 96 118 106
-0.360226151065423 0.413119921117186 4.096100756674411 96 118 106
-0.344195979247711 -0.291044796815422 3.523850278694807 102 104 101
-0.342270669217365 -0.276952706332442 3.531941690821070 110 108 109
-0.340472901915225 -0.225664831283155 3.556618162220621 109 103 103
-0.428407383040114 0.823000521926105 3.950074273584287 197 153 116
-0.346267825204906 0.422667428255403 4.077734974871567 95 118 108
-0.344718761870600 0.411327426938345 4.068172542367286 102 122 110
-0.340495090707762 0.329866677533465 4.004928572704670 56 84 70
-0.328377768696263 -0.408226801482497 3.408609763860234 65 54 48
-0.339803765623043 0.338830185383970 4.012372247230475 109 126 116
-0.462292263020300 0.928870009010877 3.796832104428643 209 162 120
-0.464808471865686 0.938047318248870 3.790710959598240 201 154 112
-0.533555279791625 1.130436918084051 3.530550469755034 172 127 88
-0.533555279791625 1.130436918084051 3.530550469755034 172 127 88
-0.311652671863758 -0.283991688530729 3.486735863411176 12 8 9
-0.307209990828199 -0.192912588517128 3.554714954207731 115 107 105
-0.503771665250775 1.118409031403550 3.543167094126988 207 164 122
-0.299467528641008 -0.402478264332812 3.397917539758412 159 159 159
-0.302296357086211 -0.269424713359176 3.489897936695170 8 6 7
-0.304477785308172 0.468972855148209 4.061739978915992 100 116 106
-0.301012040342360 0.445378619763621 4.037822568923835 59 85 72
-0.432741491668783 0.978485487539695 3.738438843237562 211 166 127
-0.366229872347684 0.811440283947272 3.970209198331245 209 160 120
-0.285588295416666 0.415221136581074 4.004689156660138 98 122 109
-0.314141050586985 0.712511352668315 4.086193142326830 185 142 107
-0.408842721333896 0.965956377662066 3.752667282047527 200 149 106
-0.203625929187723 -0.558423018762598 3.610329408163812 71 97 110
-0.276848681299089 0.164511987706944 3.800941635973897 134 121 113
-0.267760533534764 0.174746315012339 3.800343046685329 130 112 108
-0.337618604239703 0.821969876776954 3.939133931013052 210 161 120
-0.263031008918255 0.197367428408144 3.808316753604278 131 112 108
-0.263031008918255 0.197367428408144 3.808316753604278 131 112 108
-0.255713550641152 -0.376839248643324 3.374614498073776 0 0 0
-0.506315624078788 1.264991775750634 3.340922812074421 192 150 112
-0.256446237884849 -0.222657115040541 3.487417286194184 104 102 103
-0.277253675682648 0.708826476440709 4.077896083315279 192 149 107
-0.252683616011956 -0.247890815438606 3.459759779275709 5 1 2
-0.339608308515510 0.883115350642384 3.867123594073614 210 163 121
-0.354855916882973 0.913406051862233 3.816880495644193 135 84 55
-0.249835465557299 0.385974593273336 3.941827761934213 102 122 113
-0.245650633992676 0.076351569437324 3.702091513737315 35 25 23
-0.345634282339619 0.912632626509126 3.820234840024546 209 162 120
-0.433711857493795 1.134722248268274 3.524357047212611 159 107 68
-0.238142999277570 -0.175106411833878 3.508669466762334 105 99 99
-0.237173125730184 -0.145510552014304 3.525786888941772 10 6 7
-0.234340931079387 -0.231983756755573 3.460128810035532 11 11 11
-0.233066134953580 -0.206297856200222 3.480048798065718 8 2 4
-0.233066134953580 -0.206297856200222 3.480048798065718 8 2 4
-0.454502404006485 1.205948036747230 3.421813812116088 207 159 119
-0.228459112276759 0.476686834051623 3.985313901427952 121 133 123
-0.226840517697943 0.486521454781954 3.995220210675620 61 89 77
-0.093621710912236 -0.416567493285743 3.963482769542674 2 0 3
-0.093621710912236 -0.416567493285743 3.963482769542674 2 0 3
-0.306963524298794 0.882754795012590 3.855893034545600 206 161 122
-0.429324065354639 1.173644258765130 3.456390567543201 195 147 109
-0.215227214875126 0.093059296818815 3.688162910266540 106 97 92
-0.213468729618835 0.243614631502268 3.803731708111931 141 121 112
-0.211051949238631 0.395086596616919 3.911121110403946 62 86 73
-0.209533147502308 0.084402766694823 3.678825728589420 110 109 91
-0.209533147502308 0.084402766694823 3.678825728589420 110 109 91
-0.209196983341196 0.090888351968791 3.682645611079865 22 17 14
-0.216827405590301 0.110392424619519 3.650850448946850 46 78 63
-0.195066681816922 0.491429158213074 3.970463458786889 63 90 73
-0.376430495030227 1.104961864665257 3.548204555291551 212 167 128
-0.191763485560554 0.496546096477194 3.967061470881531 118 128 119
-0.252081162384733 0.839109486957247 3.912128149749159 201 152 109
-0.185472112556948 0.371803209159836 3.877759086265511 111 125 112
-0.293798956059737 0.953229150539176 3.762434074789004 214 169 130
-0.185441783817169 -0.373215818603637 3.341898119324143 239 183 160
-0.184492107002094 -0.159557829288350 3.478273037995718 116 106 105
-0.238180352090860 0.847265669346308 3.907609573295761 206 155 110
-0.180054325307252 -0.163234873987350 3.476213314933720 1 1 0
-0.269660606794801 0.931040002002157 3.787009583686958 206 157 117
-0.168064473858604 0.714095832476749 4.075201903930092 162 111 64
-0.161058435852021 0.401647168662756 3.880691871603066 60 87 70
-0.391347495368733 1.226492986570581 3.394973730748621 184 137 95
-0.050459922663832 -0.615865442118963 3.683168802249991 233 184 167
-0.287541778499834 1.011620262982222 3.678152693709159 225 176 135
-0.272719977422218 0.985754833041509 3.719892974316532 138 88 51
-0.262411396507841 0.966907296495004 3.735760651849553 211 163 123
-0.147966863541635 0.268723398848016 3.773789857445010 41 18 10
-0.154665091438821 -0.127971994568296 3.486877511592799 118 109 110
-0.150585078653062 -0.033961647431448 3.553444811058135 15 10 7
-0.264065591750819 0.991603510999849 3.698535788411142 225 176 135
-0.000109995634654 -0.668614702891083 3.751258504653342 95 115 124
-0.278169818718325 1.034459716725253 3.646882628831075 234 185 142
-0.142510442832545 -0.177937251918849 3.444667456103348 120 110 111
-0.142510442832545 -0.177937251918849 3.444667456103348 120 110 111
-0.130573136687156 0.281302819930685 3.769705669113086 135 111 99
-0.130573136687156 0.281302819930685 3.769705669113086 135 111 99
-0.131791199890411 0.027548546458278 3.586767975458193 22 10 10
-0.120208186254387 0.439016320241441 3.883782490415590 115 132 114
-0.127978037427699 -0.180485281281494 3.437151332727040 106 97 98
-0.111240062967524 0.287130444219954 3.762377561233462 142 115 104
-0.308695835082643 1.177958372675668 3.446030102706731 220 172 136
-0.246705670072927 1.059047424453585 3.611610729177112 226 174 134
-0.093745365557764 0.290737579615806 3.749697228828792 143 119 107
-0.241242821048335 1.061100180468070 3.605885669722592 229 180 140
-0.234415907449776 1.064369866251890 3.599967404573830 216 166 129
-0.093166679712462 -0.151009379541245 3.440058594473994 8 0 0
-0.093166679712462 -0.151009379541245 3.440058594473994 8 0 0
-0.089363315042199 -0.035235477651136 3.519795441598428 26 14 16
-0.109916553342168 0.818760264301615 3.924510586580762 207 154 102
-0.058301369419014 0.735385071703890 4.038926199649866 214 159 105
-0.058301369419014 0.735385071703890 4.038926199649866 214 159 105
-0.101186842632550 0.830822091494114 3.917571680655120 168 110 62
-0.101186842632550 0.830822091494114 3.917571680655120 168 110 62
-0.095641015563666 0.825638046635266 3.919859856739016 221 165 116
-0.095641015563666 0.825638046635266 3.919859856739016 221 165 116
-0.078503909928913 -0.346692375036150 3.316146223335008 0 1 0
-0.078503909928913 -0.346692375036150 3.316146223335008 0 1 0
-0.064354730271431 0.146953250705516 3.640742849797897 12 0 0
-0.062992006438549 0.129632579978585 3.627480338922128 25 10 7
-0.198951338895307 1.095378536668707 3.625594105405438 229 180 140
-0.046737768963074 0.237806302282111 3.700788746393115 145 124 123
-0.055000038812967 -0.134732448952782 3.437930932684753 114 104 102
-0.048514796171732 -0.119147330420773 3.447200462180337 27 15 15
-0.032002048293299 0.139665390232012 3.623347931479698 24 6 4
-0.022332881180855 0.293334841584189 3.731264534864669 139 114 109
-0.005558028352497 0.448507732918786 3.837473726013545 32 25 15
-0.164222761533175 1.063060670583525 3.593571344570812 151 98 58
0.003809101151126 0.525415629157309 3.887506352442089 14 4 0
-0.027206702397201 -0.236235309388356 3.358420932705047 8 3 9
-0.020177000780949 -0.096135828776293 3.455575026965552 125 122 129
-0.007052875767784 0.173161058419319 3.639981478518107 27 9 5
0.006794069829502 0.470975994752459 3.848662991284335 98 100 87
0.014738303863304 0.509431800311645 3.874182572015368 30 10 3
-0.012729194426716 -0.216465928855900 3.366543639893336 37 64 57
-0.012729194426716 -0.216465928855900 3.366543639893336 37 64 57
0.018261802098935 0.283564955603925 3.714226575710843 141 122 108
0.001524883168005 -0.056267457881218 3.478386452408804 18 13 9
0.015087491764884 -0.063654918867873 3.470604584153401 11 5 5
0.006050217442390 -0.217382575465497 3.361774434448283 6 6 6
-0.106268402168356 1.047324573665065 3.611616287550153 228 180 134
-0.207866164452299 1.232696529981200 3.363639661573335 228 178 141
-0.106268402168356 1.047324573665065 3.611616287550153 228 180 134
-0.122704290415001 1.078669687624555 3.568576293597921 249 195 149
-0.108629175203476 1.059427799237148 3.597340029816450 239 185 141
0.034235463650004 0.174607015539856 3.616837320877870 138 122 125
-0.124576508807347 1.096386817085728 3.543911182759597 246 192 146
-0.101485764589975 1.062367436009643 3.591691508783943 229 175 129
0.031379663247939 -0.061360838745117 3.465002954173455 59 72 65
0.032311016718045 -0.089274675737014 3.447762413079492 45 63 51
0.037208918923420 -0.057878426267949 3.466163165019768 9 5 4
0.048814799516458 0.096767918998591 3.571749309869795 18 4 4
-0.107755287094037 1.093222213850854 3.544049046627290 244 190 146
-0.091695257346407 1.066105292020467 3.581499011259345 241 186 145
-0.167054609870821 1.210820799104297 3.388687471283493 210 161 118
0.059100195306370 0.098114755147308 3.573024970237340 131 115 116
0.035736718501336 -0.337047710354707 3.285739383263960 190 164 149
0.035736718501336 -0.337047710354707 3.285739383263960 190 164 149
-0.099845288453981 1.098112150483439 3.542972509337744 247 190 147
0.041337977875424 -0.212768554180628 3.359546527469320 6 5 3
0.041337977875424 -0.212768554180628 3.359546527469320 6 5 3
0.051639299335785 -0.063014377678570 3.461602332304888 11 11 9
0.051639299335785 -0.063014377678570 3.461602332304888 11 11 9
0.050994900951435 -0.078411675632229 3.450138209679206 64 74 66
-0.092885000025673 1.091258685426851 3.548913410451150 246 188 148
-0.154361458953625 1.213043257801108 3.387595987970903 143 91 51
-0.154361458953625 1.213043257801108 3.387595987970903 143 91 51
0.078992379853676 0.247379808737718 3.671216087727828 28 3 6
-0.185510727383175 1.269186582789950 3.312583955857016 214 166 128
-0.099402810172331 1.126146173635332 3.502111684482636 241 187 143
-0.148280591394642 1.211123746729757 3.386294212795716 222 174 134
0.089647311688171 0.293102318228697 3.703679099576892 138 114 104
0.068882044847264 -0.055673276367875 3.467666671733089 144 135 136
0.076642067231829 0.061753247481657 3.544216754840089 32 14 10
0.082650505955117 0.157238155751524 3.607973206824081 123 109 109
-0.177688570037992 1.272991471440921 3.310413967877656 217 169 131
0.016293237172769 0.938383469893594 3.749815926377006 228 171 126
0.081706008727503 0.030854270578922 3.521590707527998 131 120 128
-0.089172328730047 1.129866233476682 3.496553149297631 248 194 148
0.038163589808950 0.906376428357465 3.790396395677583 231 175 128
-0.091265740936221 1.138838471607218 3.488527894360887 236 182 138
0.097717500138757 0.179685978238102 3.620396625900202 16 2 0
0.151989897380743 0.725101485716617 4.045543207390958 94 61 42
-0.072763541938975 1.109360657656197 3.521196850064106 246 194 147
0.102755656803893 0.221001324411659 3.652024681429533 112 107 85
0.102252289505563 0.220743098529221 3.650317173732324 112 107 85
0.117110198465185 0.406086888651121 3.782355226306063 104 87 69
0.117110198465185 0.406086888651121 3.782355226306063 104 87 69
-0.085628534013225 1.135625127022664 3.486922362530559 123 69 25
0.044460668469189 0.910261487379776 3.788400398180675 239 183 136
0.112701602344726 0.255075781572295 3.674253970026222 137 113 103
0.098849980788023 0.034605039857991 3.523430089571685 145 130 135
0.074603550180918 0.869225998160053 3.834403999819575 233 177 128
0.126525512037126 0.334732004384560 3.732525579279787 127 110 116
0.173211173897390 0.719783448495768 4.041692558009832 80 51 33
-0.121331955846361 1.223109654464843 3.367773965669176 224 177 135
-0.062853658986341 1.126970402146753 3.498668484718200 241 188 148
0.097495406906589 -0.145138494040083 3.399394298698011 144 128 131
0.115221445874394 0.086241935412461 3.552064883497455 24 8 9
-0.146510883607528 1.280278131974479 3.299845144169725 199 150 110
-0.071547349460562 1.150641179179488 3.467552471763887 179 124 70
0.142674762104850 0.373061794044639 3.755866014833816 118 106 84
0.057668870906804 0.934728194582967 3.748047904082776 231 175 124
0.096430546831435 -0.330535136503985 3.275494016661137 230 200 189
0.096430546831435 -0.330535136503985 3.275494016661137 230 200 189
0.149596165405052 0.348774213836682 3.738258433899623 38 20 8
0.153845656110297 0.354944635946557 3.741529378257954 132 115 99
0.143654177587470 0.228167389694401 3.651340162112251 136 121 124
0.143654177587470 0.228167389694401 3.651340162112251 136 121 124
0.117890962884661 -0.145581615693088 3.399977651786031 152 138 138
0.162612220230598 0.417991897496864 3.788912563668720 37 20 12
0.162612220230598 0.417991897496864 3.788912563668720 37 20 12
0.176519635934858 -0.458927095977561 3.431590871865439 250 192 168
0.168346973592605 0.777700439769660 3.959761608671574 215 155 101
0.107302609796454 -0.328689644213301 3.280460777441405 201 164 145
0.189972106430402 0.752312066419875 3.997981831858814 227 167 105
0.153590987725688 0.236685924894251 3.657354997851817 29 11 9
0.112854157282863 -0.323455744032233 3.274562227048897 41 19 22
0.112854157282863 -0.323455744032233 3.274562227048897 41 19 22
0.168970070999704 0.364085217221421 3.747534572441599 32 12 13
0.125475536336091 0.877483362891729 3.825628634914757 231 175 126
0.173080478367828 0.242683175965370 3.662653244982779 141 125 128
0.133152892646951 -0.341082890647542 3.273686711485102 9 5 6
0.075914408253030 0.998117330557401 3.671186235676553 240 182 134
0.191634382344089 0.281592674531407 3.692290240435503 38 20 16
-0.035865197645914 1.184080721824638 3.424287979866910 210 159 112
0.187349443466862 0.190461887497437 3.624810253375703 24 6 4
0.046513082303687 1.052283677021447 3.592289079163296 245 191 144
0.177959915062944 -0.006408900883547 3.494272163927919 23 9 9
0.177959915062944 -0.006408900883547 3.494272163927919 23 9 9
0.213131699328898 0.376431526651497 3.758912565509505 146 130 131
0.225649153169595 0.491017207562907 3.840099665906571 39 19 21
0.225649153169595 0.491017207562907 3.840099665906571 39 19 21
0.233673681792283 0.560919582650041 3.881260113227990 144 116 113
0.119078841455194 0.955380861321095 3.722470686402570 249 192 139
0.192169599683641 0.059509899442486 3.539456167041898 26 5 4
0.191274112021951 0.018381283204033 3.512008080372555 146 133 140
0.191274112021951 0.018381283204033 3.512008080372555 146 133 140
0.167154479799837 -0.262281801724964 3.320874151019543 140 135 139
0.238942585644892 0.516750500273759 3.853341712982994 148 128 130
0.241651754319958 0.529951537037894 3.859995725097604 160 139 136
0.169081181959277 -0.347249703740695 3.273110239196864 244 192 170
0.201119247404345 0.036596703381772 3.525476014147927 148 132 132
0.202085554554392 0.044497282193076 3.528607825786829 22 6 6
0.168637400569877 0.894562335959160 3.794714068123018 240 180 128
0.191801386397625 -0.092325613995461 3.435114784042121 128 110 106
0.194724177661929 -0.129496629748302 3.409413355785469 38 19 15
0.182929034978216 -0.337550055698660 3.271515734502907 0 0 2
0.209353228897448 -0.107410882670275 3.428770402782986 31 11 10
0.048789559338454 1.122843965841046 3.495088023376361 245 194 151
0.203855937416381 -0.179273182222607 3.380527158114812 150 137 144
0.201363419824076 -0.224788136155163 3.348996058446413 29 17 17
0.240139558442895 0.145490108583414 3.604822210738395 153 134 140
-0.045860475700913 1.281181552453125 3.285532696732111 221 171 134
0.052329394538146 1.128584795725081 3.481720311238617 104 49 18
0.236924129437415 0.027202023375812 3.522006624368272 34 15 11
0.249759415705015 0.156274826909879 3.607006168585071 142 118 118
0.214529121952590 -0.224961453239079 3.350105033243306 14 0 0
0.009930701670576 1.216367593076472 3.368893657184342 179 125 78
0.208231148327845 -0.345432258235209 3.269671605921737 9 4 0
0.040446118521832 1.170785011707291 3.427027211560390 234 181 141
0.236366483514521 -0.105586922420360 3.431681627902844 41 20 19
0.236366483514521 -0.105586922420360 3.431681627902844 41 20 19
0.152766870616445 1.003520219192757 3.651496597560669 241 185 134
0.152766870616445 1.003520219192757 3.651496597560669 241 185 134
0.228814795801300 -0.222708859539503 3.356661072347584 148 139 144
0.236027844172565 -0.142321063130745 3.407941040072426 8 0 0
0.252170585714925 0.014966711833758 3.514981235754967 148 124 124
0.252170585714925 0.014966711833758 3.514981235754967 148 124 124
0.054661678017350 1.158297892261143 3.443206113351194 255 203 153
0.243333854136141 -0.136964606968180 3.413939470091460 145 133 135
0.160299595069043 1.006774937981099 3.643736843719470 228 170 120
0.249588746984495 -0.126770868592258 3.422845107889283 149 135 135
0.306624723719332 0.354975609019327 3.760097179553554 132 117 94
0.245280282298687 0.899529314528247 3.778992092618537 240 184 137
0.057999097173281 1.191737889743661 3.401000486858360 233 181 141
0.245027787004525 -0.346119543328471 3.275964813765195 179 151 130
0.091774924479496 1.142393239349931 3.461602226798226 241 188 146
0.286311941210517 0.007531740339602 3.517733495794230 42 16 17
0.084881253333277 1.161932721611496 3.439707690755663 242 189 147
0.348974085162836 0.762885432730880 3.966578760869308 239 174 120
0.099759161850312 1.146576314360566 3.456664793116961 243 191 151
0.313637674183196 0.118773450955546 3.598891420374480 147 130 136
0.107088948417877 1.150234009234900 3.451816178025918 254 202 162
0.107088948417877 1.150234009234900 3.451816178025918 254 202 162
0.326549975382646 0.119355812288030 3.599189875328288 153 133 135
0.288487953164176 -0.201360091344414 3.376419799960882 159 147 147
0.290098261880627 -0.215128017576651 3.369468924146116 158 146 150
0.050394909050202 1.252319069495133 3.320788506407839 230 177 133
0.050394909050202 1.252319069495133 3.320788506407839 230 177 133
0.276493252144976 0.914746482484970 3.760399299842422 246 186 136
0.276493252144976 0.914746482484970 3.760399299842422 246 186 136
0.704256130753023 -0.981957855671796 4.118821464139025 210 163 155
0.133000360299774 1.137659384167753 3.465758397433771 251 191 139
0.325521764726777 -0.045050916722305 3.497682107957855 166 145 150
0.327348596305800 -0.016363969844183 3.514133793517945 161 141 142
0.109153298890218 1.182398530100166 3.406579565897233 246 188 142
0.109153298890218 1.182398530100166 3.406579565897233 246 188 142
0.127098075342433 1.159641537007844 3.438254198384620 255 204 160
0.339723147377180 -0.017206571111723 3.516481929740662 162 140 143
0.343899884840476 -0.027866346245043 3.511139512863988 34 10 8
0.260628528334719 0.971114845967229 3.681181561351652 254 193 148
0.266710765976659 0.974353307452377 3.680948888309501 255 197 152
0.249935149247010 0.996893870001006 3.645138289918847 235 179 132
0.249935149247010 0.996893870001006 3.645138289918847 235 179 132
0.191902023963547 1.085277777670425 3.532055646870155 203 147 98
0.047119642077839 1.301297787400462 3.246739270071664 233 181 144
0.066063410455665 1.277963939884094 3.280307312110359 231 182 141
0.176236049213416 1.119844739960733 3.488674620382427 240 184 137
0.442950015869067 -0.545845038874641 3.523548408685439 82 101 108
0.366231058259677 -0.031384823573279 3.516409986569991 159 135 135
0.367516753364383 -0.019439981266769 3.523996527220344 171 147 143
0.345128665270060 -0.400608601909416 3.323490792741113 237 179 157
0.130519003221509 1.198532907999874 3.386175200850087 179 125 79
0.373508610447364 0.848769899737970 3.845171618770651 238 182 131
0.153453514961576 1.171834071734978 3.419009143093410 255 202 163
0.364540553528993 -0.149800306603719 3.437286361434339 169 151 149
0.382690355776985 0.851483810351158 3.836211058572200 237 182 128
0.382690355776985 0.851483810351158 3.836211058572200 237 182 128
0.079624626939241 1.291959612006973 3.261944102091699 224 172 132
0.415787177207998 0.812238925131344 3.892740545961933 239 181 135
0.151979016428020 1.189776292124205 3.391728356295965 163 110 70
0.363054349861870 0.896968052685266 3.778030687243629 236 178 130
0.363054349861870 0.896968052685266 3.778030687243629 236 178 130
0.167492829916970 1.179083836204304 3.409026410992088 247 198 157
0.375077392601819 0.879271707685115 3.795522958675026 246 185 140
0.224487247700198 1.103257411518382 3.507977195562591 232 179 129
0.376889288694726 -0.242512534086704 3.381885971876097 77 75 63
0.353304192791625 0.922884967402093 3.739525026400387 234 174 122
0.174944271804216 1.182544505751977 3.403905844313648 255 204 163
0.152874102468306 1.214697372466501 3.360105303747216 255 206 169
0.216005321856356 1.125148741992120 3.475540420764387 204 155 114
0.212624378917965 1.135250839039025 3.460934746704608 240 183 138
0.180699778003309 1.184756848875868 3.397009993667963 252 201 156
0.246899601300249 1.093335915750910 3.515697641600498 252 190 141
0.187509068691493 1.185939809055547 3.386281023794836 247 192 151
0.498711582346707 0.757843225070543 3.961597064641643 220 163 120
0.187109423147561 1.192071870999184 3.385334105206147 124 72 35
0.175870038631573 1.214737167658275 3.368764756123815 241 186 147
0.150163760998066 1.245665251626164 3.319166189698548 245 187 147
0.355308321853202 0.958444587302897 3.688680729925589 243 182 135
0.444417457870054 -0.050310812151662 3.539097834461826 174 155 151
0.410252499875113 0.896191064835541 3.772353452676049 248 187 140
0.196283091662216 1.215479281401877 3.360964849816958 250 196 152
0.214919122412365 1.191296832484848 3.387542321365555 250 196 152
0.189646773852431 1.229826972003376 3.335170534869506 240 187 145
0.251523068595322 1.146619026433512 3.444260669846858 249 195 151
0.430152707361336 -0.392779576236252 3.317834206862864 3 2 0
0.258230086135800 1.149574562411104 3.439794590863862 229 174 133
0.228961730451786 1.206397593885744 3.365465013242204 247 191 144
0.206446229135054 1.239580759086206 3.326459107094189 255 202 163
0.235959902408972 1.200312791183458 3.373749232609085 242 189 147
0.121785152149057 1.360859723324102 3.158810325437972 226 176 141
0.217281758175820 1.219853253620840 3.321306795130413 249 196 156
0.127238026178152 1.359348478696434 3.162066528570960 142 89 57
0.175467989944957 1.303549011736219 3.240553719564728 228 175 135
0.422690224790572 0.985213258144616 3.649893158399300 255 197 156
0.255971133506988 1.209660065483357 3.359013143589570 253 198 157
0.516224251474495 0.876868494742732 3.800432519657166 251 190 143
0.220884672854099 1.277423300849515 3.273305922582870 251 197 151
0.268494606079910 1.219948917001504 3.345073685062299 114 61 27
0.271001071459977 1.226668755301881 3.336937728560325 254 202 155
0.225469963939493 1.288297644380997 3.260878626972869 238 186 146
0.734297757745150 0.627426124017964 4.121140948248885 249 185 141
0.284255986657580 1.231838718218163 3.326107703146961 255 199 161
0.422867539006163 1.057902312057183 3.556631418829288 244 186 140
0.239142067675732 1.306960965121729 3.229246338174185 238 185 141
0.610253711246107 0.832489896907759 3.845517874087743 251 190 145
0.659700396358449 0.797272537739828 3.893225227770035 193 141 101
0.370226587236616 1.155881040780994 3.407926220920084 219 165 119
0.506782129116353 1.055293694798567 3.542634110445230 206 149 104
0.333979102256791 1.279279724450882 3.259002080177485 245 191 153
0.396678079640510 1.199808852118283 3.357183176807676 255 201 156
0.396678079640510 1.199808852118283 3.357183176807676 255 201 156
0.305671234815864 1.314117875272856 3.213031723140361 255 206 162
0.366503222227245 1.244539456571095 3.307880632975567 219 168 125
0.361333671258541 1.250223826487019 3.298778245107066 236 180 133
0.548509752182804 1.021151524872787 3.591842831290077 251 193 147
0.403985633361423 1.203543371520248 3.353435960578034 248 194 147
0.557658075634797 1.025585263398466 3.588670822676016 251 188 144
0.473905019668118 1.132421389970818 3.446228546886011 231 174 129
0.566615787367696 1.017963296506080 3.589256139077416 255 199 153
0.483343353968844 1.136176013186607 3.441506411112899 236 178 130
0.686117297265871 0.934628100876632 3.699943173961230 255 196 152
0.496047523910470 1.184130408236487 3.374597034713933 156 101 45
0.504702330992119 1.188597291078581 3.368096925574148 148 92 41
0.504702330992119 1.188597291078581 3.368096925574148 148 92 41
0.400847819027612 1.311119467005554 3.212452684836450 236 184 145
0.404639385138556 1.317375755916141 3.201219884499017 132 81 54
0.411511627050901 1.320202029745085 3.196750247711455 120 71 41
0.415582098442373 1.317834470119617 3.201989884155399 241 192 152
0.552747278504749 1.176697063154572 3.382960270091164 244 188 141
0.448916243854828 1.303338211287152 3.217910194691490 236 184 145
0.558263955321176 1.178714144585350 3.372644355812204 240 186 140
0.542010065630256 1.201612872227182 3.348144100951591 228 171 126
0.476740784000846 1.291630936196207 3.227229613573623 225 171 127
