ply
format ascii 1.0
element vertex 338
property double x
property double y
property double z
property uchar red
property uchar green
property uchar blue
end_header
-0.652217876355055 -1.428824608728868 7.504628571382063 136 143 162
-0.652217876355055 -1.428824608728868 7.504628571382063 136 143 162
-0.763881615647917 -0.339054207116325 8.110817400804230 157 163 177
-0.738071909707911 -0.298118667023715 7.849425843457864 157 163 177
-0.614985104045947 -1.248028685152749 7.680041728937243 74 79 98
-0.910259582568380 1.836804827230224 10.451023917201855 135 157 155
-0.435976030753803 0.805266364858133 8.696221871646831 50 83 88
0.045740706089091 -1.210010781920692 7.581271583356694 154 162 185
-0.346466053223759 2.909872374667097 11.934624206437459 66 67 85
-0.313559239967170 2.972124503523387 12.068259347787833 61 64 79
-0.260402920529215 3.014647906408154 12.200823521032461 55 58 75
-0.214906224130085 3.010858109311840 12.251265064078558 48 51 66
0.244728298099431 -1.088472078643995 7.536828280384160 127 132 151
0.244728298099431 -1.088472078643995 7.536828280384160 127 132 151
0.285799126792631 -1.147468757555829 7.551973615942537 86 91 113
0.007677098998224 3.174368634749415 12.798586492709507 53 52 66
0.007677098998224 3.174368634749415 12.798586492709507 53 52 66
0.060998845427906 3.200061122323671 12.919795661197801 59 61 76
0.060998845427906 3.200061122323671 12.919795661197801 59 61 76
0.345492234041844 0.035317899353672 7.989087697855436 94 121 90
0.336657328985250 3.275280005316516 13.542887293959886 99 98 112
0.409438779728559 0.201345687582201 8.211846321879575 34 65 49
0.434235834304899 0.334416114380334 8.450830327288227 31 83 71
0.415887712071063 3.345984050405462 13.782916059389942 66 65 79
0.415887712071063 3.345984050405462 13.782916059389942 66 65 79
0.446870148372521 2.101415023307441 11.522335028970460 32 45 51
0.494561296077699 0.487604165036817 8.784883203701630 132 119 129
0.507202382274223 0.477545586737165 8.777920233878083 103 37 49
0.615834109889339 1.072906840789696 9.967554161930327 51 53 40
0.705987533109732 3.433610187969887 14.551147183714470 109 108 122
0.698898028010526 1.989519215883152 11.703321741752156 48 80 79
0.215116377939563 0.496253327038981 3.196297891747345 44 44 56
0.750338097544130 0.184881697149885 8.731753421483337 110 115 93
0.750338097544130 0.184881697149885 8.731753421483337 110 115 93
0.795623676512582 0.621594193050578 9.482954880893137 44 85 81
1.163862745469387 2.795572153042575 14.566428779066557 104 107 124
1.047469306092299 -1.398495721002244 9.044078391044131 215 223 246
1.108550792068300 2.059296061883548 12.964623983915613 83 84 102
1.108550792068300 2.059296061883548 12.964623983915613 83 84 102
1.102045320408407 1.606729955583108 12.113646895810453 80 81 99
1.095127159849295 1.070134827469582 11.099679988674735 74 76 91
1.084003846962706 0.875812279926716 10.652260215822515 70 72 87
1.085736700800777 0.325077117026227 9.668639106073519 75 77 92
1.167887573056173 0.716367874331423 10.651446345842778 95 96 114
1.153504828512362 0.398486577828495 9.961090982902533 89 90 108
1.083412468966237 -0.142615596908344 8.808821780903848 72 74 89
1.218693857704263 0.294008348991984 10.062019566101553 130 133 150
1.185508304320619 -0.758707539348757 8.056549791234177 87 89 104
1.222948646359841 -0.701615559466077 8.308067586016339 135 138 155
-0.764408669726938 0.103786130778372 8.334477366490297 151 165 166
-0.847168220431544 1.329607293560980 9.715869705823232 112 146 147
-0.735402703119982 0.940325884807467 9.043508341568670 136 149 165
-0.525925066058741 0.538363390099439 8.382433817392755 42 50 63
-0.590201155045322 1.064570898514419 9.068876183320088 47 91 90
-0.288012222982996 0.351821775845038 8.067339238403584 32 44 42
-0.306931398417606 0.633026715927097 8.463684659274845 43 44 48
-0.080957673598912 -1.084266633801532 7.469031506159959 105 111 135
-0.113043267935051 0.494006894657728 8.279674246593782 166 177 145
-0.113043267935051 0.494006894657728 8.279674246593782 166 177 145
-0.367475008191871 2.874101868884269 11.844280975599490 111 113 128
-0.317518373301671 2.918123736648866 11.941397518866463 112 114 129
-0.035758216605743 0.801766839846568 8.764218847601562 35 74 71
-0.066662510523463 1.811673106094715 10.338012414449414 37 111 86
-0.156062894140201 3.057102657299514 12.353291349474530 42 45 60
-0.156062894140201 3.057102657299514 12.353291349474530 42 45 60
0.093024606838915 0.183223368032584 7.948589606419816 45 92 82
0.242172696770209 -1.123844095915185 7.538692049430047 20 17 34
0.277616610787781 -1.113567028214446 7.555172355918022 141 148 166
0.281884231607675 -1.132736104831368 7.548677311593504 213 221 242
0.168012196366390 0.376703885253225 8.257607019940259 138 148 123
0.168012196366390 0.376703885253225 8.257607019940259 138 148 123
0.088040978641332 3.256595000751290 13.102046540221188 118 117 133
0.140839946384095 3.273435717355201 13.191380191479322 118 120 135
0.198782605961760 3.312064282113753 13.380734574209210 107 106 122
0.243708177801625 3.208680954823223 13.261706178914185 34 33 47
0.313334627238201 3.294562710407198 13.501634840125989 45 47 60
0.531416473411710 -1.154434989077657 7.763928458331976 81 89 110
0.575145573626870 -1.310480179566314 7.834074658164808 105 113 134
0.481837969907145 3.325426412395234 13.811538360549831 54 53 67
0.560777397844441 1.069140070319884 9.979121467877251 137 146 93
0.641803441906136 3.423387179098373 14.388876110438467 111 110 124
0.643900799453399 0.436920324621072 8.886504221162824 104 104 112
1.009162832228259 3.265891749702059 14.893300594427192 102 101 117
1.073425660937362 3.353441164817412 15.357237658097580 70 72 87
1.141953111399348 1.262588284846506 11.584007548098498 87 89 104
1.007169070820880 0.311855186735450 9.431190157361101 138 141 130
1.165671973478565 1.234320519361174 11.583707917563018 90 91 109
1.126740219001063 0.399202028052948 9.907729319596234 112 113 131
1.155433028118869 0.541931442559500 10.234574249789109 94 95 113
1.090672987192572 0.090350687859924 9.260593145864485 77 79 94
1.098165770172759 -0.606036121680154 8.050155767793381 68 67 81
2.297659542681717 6.526659558665012 20.334434352007872 167 172 191
4.883708786858880 11.620664206666484 29.565657325117627 170 175 194
-0.631475318258020 -0.042304594499038 6.872584457486297 154 139 158
-0.736294235764307 -0.084345578293360 8.116125286336420 153 155 167
-0.717256636755612 -0.002137686934003 8.114824277710747 100 103 120
-0.648863850176053 0.351171683182889 8.277766400812814 66 139 120
-0.658161088572204 0.654291020725371 8.626720876011614 64 106 105
-0.832826370042980 1.498629261713145 9.899348094163885 94 105 111
-0.832826370042980 1.498629261713145 9.899348094163885 94 105 111
-0.917620004759633 2.136003781916057 10.769752247467601 141 152 170
-0.701483854834691 3.651406079103913 11.589880417158311 165 168 187
-0.275451107814664 0.579723595712284 7.747291180166441 35 35 43
-0.275451107814664 0.579723595712284 7.747291180166441 35 35 43
-0.270430854244166 0.573151919385964 8.364450142978125 144 159 92
0.027326188785054 -1.228916810935510 7.606327317167790 125 131 153
0.033708606945847 -1.196827481766611 7.572459674839872 90 93 110
0.125029878520244 -1.688881457050364 8.286301346398068 79 75 90
-0.085094404947778 0.829433169898992 8.792863921724969 37 90 82
0.001220258533359 0.137023963696428 7.822983117186086 35 131 94
0.001220258533359 0.137023963696428 7.822983117186086 35 131 94
-0.272411179457992 2.944129308401451 12.029797643685866 110 112 127
-0.302145957429608 3.557140467915795 12.934213774917044 153 156 173
-0.180739133414850 3.013786729426478 12.266642786447017 106 108 123
-0.068145217106915 1.805765389271558 10.279032270387837 38 112 87
0.042146549267308 0.861607546294318 8.944746929292213 130 122 137
0.298212624507517 -1.123122646367287 7.552324445779481 15 13 27
0.298212624507517 -1.123122646367287 7.552324445779481 15 13 27
0.167715274103037 1.190364211383917 10.174736239908791 113 116 131
0.215225154376047 0.608542120046668 8.703567319373899 30 29 35
0.345266493315079 -1.033072291651077 7.541336630991181 91 97 123
0.217376282083386 1.412782284197626 9.969780997195970 106 112 124
0.405714565488169 -1.143885070147523 7.623460150086202 72 68 82
0.228546982595178 3.262893560202759 13.259055691902509 39 41 54
0.341990905197133 0.040624005292676 7.939170344165327 95 116 60
0.357785894098563 -0.010130475384378 7.828618463389041 34 75 69
0.498162448585146 -1.212747248587968 7.755207414210037 72 74 87
0.343167507074093 3.366348521428900 13.729462381646981 101 100 114
0.396956104558564 3.271204090179344 13.580559281760330 97 97 109
0.459566425671465 3.387717117856735 13.971045613100220 105 104 118
0.451740023405591 2.044932215486600 11.342258353830193 32 39 47
0.593874266197157 1.910952455897382 11.331652185237290 46 114 93
0.593309164852058 0.641411048894181 9.438904435657500 106 106 114
0.673361258820025 0.338726647481576 8.727196129254381 107 107 115
0.969234480740436 3.259467553620903 14.855804008866338 63 62 78
1.158418261972311 1.083309779029884 11.249954530006143 93 95 110
1.151432900661052 0.423642469703498 9.998716716052543 90 91 109
1.193866011908096 0.425431797702314 9.986573727752916 128 131 148
1.099341926235045 -0.672936948889607 7.926276050402414 73 75 88
1.125315268768321 -0.602091672585154 8.138350411524636 118 120 135
3.583527771485547 10.737283188993009 26.240080233844584 167 172 192
-0.746268255043445 0.040048763736426 8.262628324899289 108 115 133
-0.862034848672667 1.198187859161383 9.477254239878706 160 171 173
-0.649480308321926 0.342214143346530 8.282850037528306 63 140 122
-0.661649700985958 0.877008976201624 8.881330581602661 61 101 103
-0.661649700985958 0.877008976201624 8.881330581602661 61 101 103
-0.634981905918126 1.035748666046219 9.075714824167122 126 138 152
-0.459916304522869 0.686340193633888 8.529718552367545 139 154 87
-0.349827989179068 0.752747976332102 8.598438215877303 41 98 91
-0.349827989179068 0.752747976332102 8.598438215877303 41 98 91
-0.340033913120955 0.950214701356797 8.863735304577801 38 94 85
-0.340033913120955 0.950214701356797 8.863735304577801 38 94 85
-0.270399624662173 0.573005214883895 8.368993292692162 148 163 96
-0.270399624662173 0.573005214883895 8.368993292692162 148 163 96
-0.369473231493556 2.944038578419161 11.945783342440727 112 115 130
-0.317262523181517 2.666277842092689 11.532272781919252 39 84 77
-0.061018321977345 0.382019869026236 8.095915291480404 36 38 53
-0.271970979597611 2.944087189537075 12.029352112422380 110 112 127
0.104037202842660 0.219067565349480 7.975161504042845 36 89 79
-0.119198506455913 3.057138380338197 12.345095816625253 114 116 131
0.014771066919769 0.953601086538424 4.084574584361525 33 62 58
0.217579536127256 1.412318578783579 9.961009390594441 106 112 124
0.214998440844316 4.095301022219039 14.541312087232264 155 158 175
0.270222255582769 3.224489269330082 13.209406534195804 110 109 123
0.458495185039929 2.058840719827020 11.467553251336907 37 41 50
0.477041970774643 0.346002874598354 8.515210699753617 48 113 89
0.479748279842510 1.851790627595717 11.129287459275030 43 111 88
0.489706455058103 1.206777009509259 10.027343520274798 130 141 75
0.489706455058103 1.206777009509259 10.027343520274798 130 141 75
0.512797847068530 4.195908082570702 15.319223773193832 153 156 175
0.757879007485903 3.420668664612079 14.646558200861108 103 102 116
1.162286380131970 1.084043919402465 11.278154442826134 92 94 109
1.114703183642781 -0.126142015967090 8.939962952734339 113 115 130
1.155328304544746 -0.093839857475380 9.156362672162953 94 95 113
1.194226728101776 -0.482118552237811 8.381983419181980 131 132 150
-0.656270406636366 0.336945488600357 8.362630753007945 60 134 117
-0.725763408386235 0.796620408260312 8.893451802138882 73 80 96
-0.729432470159445 0.906749501156870 9.021243392293375 76 109 116
-0.651617471230150 1.075829119434967 9.121031105945717 61 102 104
-0.606616404972946 1.059689032856088 9.090772453401392 51 97 94
-0.704299143880305 1.827416627092466 10.109453164527915 142 160 102
-0.704299143880305 1.827416627092466 10.109453164527915 142 160 102
-0.499349682108541 0.708759043023709 8.597690472569827 45 49 60
-0.540518160410772 1.037690248309916 9.018600612342720 47 93 91
-0.504593639395706 0.865219927396112 8.753660175371099 124 136 150
-0.504593639395706 0.865219927396112 8.753660175371099 124 136 150
-0.432767749462537 0.830991761391778 8.679249525978914 118 130 144
-0.432767749462537 0.830991761391778 8.679249525978914 118 130 144
-0.397809619679712 0.732345494532694 8.571720983868277 40 93 85
-0.702084145361378 3.190840455309191 11.878697797665346 157 160 179
-0.287214850664086 0.723666628770307 8.556508498050462 37 93 84
-0.243829598804881 0.738243167252970 8.589127024725251 122 134 148
-0.243829598804881 0.738243167252970 8.589127024725251 122 134 148
-0.347904624123298 1.751611587832344 10.035052751142267 139 155 84
-0.347904624123298 1.751611587832344 10.035052751142267 139 155 84
-0.153858569035182 1.212465343154205 9.349382171634597 147 50 59
-0.161953001881686 1.904473857686562 10.373086442103988 48 128 101
-0.005975071418192 0.820483425098687 8.778760094358672 123 125 140
0.016133411890765 0.851283388109720 8.845554804872695 136 44 55
0.016133411890765 0.851283388109720 8.845554804872695 136 44 55
-0.071824043960670 3.116138898140139 12.572212071179861 35 37 49
0.267075426107472 -1.085400693379004 7.544954273689464 21 20 36
0.211455810013812 0.141103114476703 7.934739973014543 112 132 63
0.364013357750713 -1.150481797971855 7.591327146463403 176 175 189
0.233214951948503 0.443205115980971 8.393756751422002 31 112 80
0.368017575614071 0.053806219474683 7.836773510314897 34 75 67
0.511274765495961 -1.087121613705478 7.644000125563640 104 114 139
0.447141254631674 0.263232067324393 8.340420056761607 34 34 44
0.461840344888705 2.065227276474159 11.524775365104922 35 38 47
0.492319005304640 1.207507103783264 10.039741584891260 128 139 70
0.581249229037788 3.336570570710645 14.063807570038824 44 44 56
0.721756756602576 0.649081901554909 9.408658711629494 42 116 93
0.721756756602576 0.649081901554909 9.408658711629494 42 116 93
1.253964279252134 1.915093011775621 13.228448577089429 111 112 130
1.016409624233901 0.362474203783232 9.538195545220995 63 65 78
-0.682139501970257 1.118194242456115 9.188760391300352 131 137 153
-0.506388645389852 0.555157975222718 8.368771855458700 46 49 66
-0.521271709783049 0.637696345642915 8.451501320481540 124 130 146
-0.536750838075997 0.837333443172132 8.744639902028407 49 98 94
-0.482950866394938 0.819233463505853 8.711427924538574 46 97 92
-0.192876595743407 -1.424698182257726 7.913996964086960 99 107 130
-0.465626170265283 1.005112941480866 8.952127917337823 41 92 87
-0.348432746897907 1.750535535617600 10.024398123970986 139 155 84
-0.348432746897907 1.750535535617600 10.024398123970986 139 155 84
-0.105392694034098 0.822815030920387 8.769114701201934 39 96 89
-0.088633707088293 0.871358842456068 8.820946537206719 127 128 146
0.023481375926061 0.606018962962267 8.493391885542977 116 124 137
0.023481375926061 0.606018962962267 8.493391885542977 116 124 137
0.015507339055317 0.851236072861693 8.821598889316489 135 43 54
0.015507339055317 0.851236072861693 8.821598889316489 135 43 54
-0.225017695423955 3.806719955360549 13.096850230295351 159 162 181
-0.047799642139624 2.480302296229432 11.646000374564972 37 37 49
-0.034511089448784 3.968431878355415 13.710264611015226 159 162 181
0.173326141554030 1.415149350445593 9.958683842211741 29 29 39
0.224563072223329 0.583739220747322 8.615708687346324 29 29 37
0.224563072223329 0.583739220747322 8.615708687346324 29 29 37
0.240020313571942 4.148109931742531 14.469617721392362 157 160 177
0.508561944214755 -1.080629470452368 7.619584622305456 101 108 134
0.464665913196708 2.195430091356685 11.733832105708412 34 41 49
0.530550115502439 2.757213228295065 12.961506608010785 42 42 54
0.658063765369592 3.364839134092096 14.266446950360924 101 100 114
1.127150538297636 2.815235383296910 14.499533316511078 90 91 109
-0.837235868453873 1.290230545246821 9.632276411867926 106 113 129
-0.876140544466815 1.692147700924600 10.138924506675188 99 112 128
-0.628797522651480 1.261914963347157 9.279647151377544 130 133 150
-0.644363425172565 1.462087012761029 9.616761721153726 133 134 154
-0.545853973989071 1.135810598470691 9.071212281884691 149 58 73
-0.409210664548403 1.017009871335354 8.931498858152274 129 132 147
-0.379272706120724 0.959761368406643 8.879581999464749 38 93 87
-0.341171144388266 0.890013370381431 8.806058012226218 126 133 149
-0.341171144388266 0.890013370381431 8.806058012226218 126 133 149
-0.297246483434396 0.971111420501125 8.887092640143477 126 132 146
-0.275297825853442 0.906041778717884 8.825160954977449 42 99 92
-0.275297825853442 0.906041778717884 8.825160954977449 42 99 92
-0.192187564658696 0.867800728281009 8.803762970051761 39 100 92
-0.116511525143926 0.644409907176019 8.481447297773974 38 95 86
-0.346254459773951 2.927649913314489 11.931967224172938 118 120 135
-0.346254459773951 2.927649913314489 11.931967224172938 118 120 135
-0.028249198452026 0.597509361324302 8.442401318986068 40 96 87
-0.048543872789703 0.839589517691632 8.806686590258874 124 127 144
-0.254563935174842 2.989814868865481 12.128137919297219 69 75 91
-0.254563935174842 2.989814868865481 12.128137919297219 69 75 91
-0.016524475555868 0.768242118687307 8.759811137179757 35 88 82
0.082964907643062 0.701390131140082 8.723084961214520 31 82 75
0.111001311170461 0.762983030669124 8.779338204595547 116 119 134
0.181473285247697 0.346232319344422 8.242100789479132 25 28 37
0.169201816583012 0.783032854699965 8.866456544782295 138 41 52
0.161813971580335 3.229141384436960 13.105100704731919 69 71 86
0.318400878392972 -0.227667957968076 7.397324324260962 29 72 65
0.309358166319676 2.134568564233064 11.278422809698695 32 71 66
0.492324084288605 1.941943031922769 11.288757153313229 33 37 46
0.880484175501989 0.593556768612775 9.624937615718121 114 113 127
0.880484175501989 0.593556768612775 9.624937615718121 114 113 127
0.859989355676265 -0.192210656880669 8.226741138086052 49 90 86
1.269110019458310 2.912109505055804 15.156221360332198 106 109 126
1.169577982668000 0.051651867616139 9.369404213693271 107 108 126
1.183478246183735 -0.728364539690100 8.041205632505720 97 98 116
-0.765538951317202 2.178506277209156 10.680458706230949 67 100 105
-0.388402155403521 0.757051065342829 8.568373884641737 41 96 90
-0.339123612478757 0.817903020221619 8.640256983265564 127 133 149
-0.339123612478757 0.817903020221619 8.640256983265564 127 133 149
-0.288898986205974 0.603177061222574 8.428776744933428 37 37 47
-0.409197478403310 1.685970234250402 9.858124605863537 40 42 54
-0.315067353486307 1.154185793108444 9.148302102884223 127 128 146
-0.315067353486307 1.154185793108444 9.148302102884223 127 128 146
-0.312987683635660 1.349980284633248 9.423093485416285 127 128 148
-0.312987683635660 1.349980284633248 9.423093485416285 127 128 148
-0.190371078947484 0.625855006603463 8.490543449039484 125 135 127
-0.338356517090164 1.754740912363389 10.071358080216413 137 153 80
-0.191582415822668 1.401602033842774 9.636377867600768 145 47 60
-0.145243316167268 1.271512527553754 9.432643584196386 126 125 139
-0.145243316167268 1.271512527553754 9.432643584196386 126 125 139
0.065044127503630 0.546451530173700 8.432126579626223 33 82 76
0.134299560314388 0.071978254873756 7.783974990918463 25 114 82
0.229547703897988 1.149494852635147 9.527894331693560 133 40 50
0.315983408663564 0.666530619904184 8.803005962789124 131 38 48
0.368689274223352 0.182674423778279 8.128353839515542 112 125 55
0.357718750701086 1.058091801877804 9.609369039838905 133 40 51
0.541090971659229 0.486159841992804 8.796995908292665 131 38 48
0.588050196267835 1.894077771345212 11.368243356789588 93 110 118
-0.691626380053886 1.208822353764921 9.306014641315130 149 75 88
-0.783304987004134 1.856426516809973 10.304347425757740 71 79 92
-0.575847752398395 1.532791122933100 9.698285207665453 149 61 73
-0.497764716441469 1.086477246144292 9.057189364176677 129 134 154
-0.402851728802407 1.110640135165549 9.039529158468598 154 54 66
-0.215676977785582 1.189903634572847 9.239722912377998 151 49 62
-0.156785258944991 0.933510402295927 8.944125761608381 129 132 149
-0.248335073813211 1.875043759780377 10.229347828984343 38 40 52
0.129897041690590 -1.396086258960649 7.930210866139185 16 18 31
-0.028571158501674 0.345680647570980 8.209495533128896 120 128 141
0.170462940098383 0.784665574216192 8.736840662035078 135 38 49
0.471786144580227 0.015069108024134 7.964193010532051 101 103 116
0.471786144580227 0.015069108024134 7.964193010532051 101 103 116
0.948581787668202 -0.263220555793197 8.230578957540851 126 137 77
6.521220579279474 2.177325772400300 26.241689235656711 178 181 200
22.111841498731792 -23.492114233748605 67.995731235601625 168 171 190
-0.140509920538750 0.396341441739895 8.118986449214690 41 43 56
-0.035338298720204 0.939555059907265 8.934466343097389 147 47 57
0.069955474831266 0.809413938341855 8.802169328858112 120 121 139
0.179961274921830 0.653529492056854 8.742259602423854 132 145 76
0.345484651677151 -0.206556680696342 7.472105946118065 29 72 65
0.345484651677151 -0.206556680696342 7.472105946118065 29 72 65
0.388465829542680 0.579569417237413 8.785220221339523 108 110 125
1.124785452620829 0.516176096695827 10.206753792665188 84 86 101
13.169935732328353 -5.215349371504412 33.017204830903189 176 179 198
-0.586932356508273 -0.845789349709192 7.051803093034837 9 12 21
-0.468146789444012 1.802412669129430 10.091160185246673 43 45 60
-0.256157849179330 0.469390912194988 8.194339895814615 147 161 84
0.309644681197448 0.119279021552731 7.991685120630612 111 127 54
-0.168797756886470 1.763835242287996 10.217117811805128 126 142 79
0.498352387886725 0.236712863174512 8.387928171591508 32 32 42
0.816112488240544 0.873797415357794 9.835307606509590 131 140 83
0.283729060046921 0.878223266221885 9.178162607902127 135 38 47
3.274584007662873 1.989930953300984 22.171820337116561 167 168 186
-0.608193950224459 0.625127250210545 8.410543098338490 71 106 110
0.990827609596171 0.213144156997209 9.307978489897556 60 59 73
1.177114404278933 -1.379377087377712 8.175527179422771 57 60 75
-0.585864628615169 1.222248509960838 9.272037978640757 152 64 76
