ply
format ascii 1.0
element vertex 722
property double x
property double y
property double z
property uchar red
property uchar green
property uchar blue
end_header
0.477452264050363 1.268893922993493 3.206837494439373 245 191 145
0.585339429353005 1.141686018041961 3.350115592381130 244 187 142
0.585339429353005 1.141686018041961 3.350115592381130 244 187 142
0.405901740310507 1.348575884689233 3.084950399145864 232 180 140
0.578202339768896 1.149503995035313 3.330647669180319 253 192 145
0.465288079665964 1.281468749542358 3.167528294695082 238 184 138
1.070623632368755 0.604730459273976 4.026648518393089 225 173 134
0.388937874234602 1.396769069151994 3.014746744113561 187 138 98
0.507463651764232 1.276583361912295 3.173612569760628 226 173 131
0.467426214573185 1.323814762550400 3.108769846566927 213 165 127
0.591377906043558 1.196786485580397 3.271776960700127 237 184 140
0.665933460827112 1.129778462413494 3.348869506961795 181 130 85
0.654867220937300 1.199323781399039 3.261555208822776 160 110 75
0.505108502813700 1.378595577337580 3.033691683283750 233 184 144
0.719980081643799 1.162511491922595 3.292331403672369 230 175 136
0.719980081643799 1.162511491922595 3.292331403672369 230 175 136
0.746753163370951 1.143832680318820 3.325419117786510 238 183 144
0.611592408975487 1.288053889759410 3.149234821941798 211 160 115
0.873618129311331 1.040983411762662 3.454353427849568 189 136 84
0.808831508383864 1.119546698737341 3.357858589450030 219 170 129
0.601592986365631 1.339975909988479 3.084518900052774 195 144 101
0.811906155121604 1.128572435023858 3.345564387858699 206 157 116
0.819373861800385 1.123182463304615 3.346376821988837 213 164 123
0.561281846005064 1.393247388984525 3.010070971207368 247 195 155
0.632172489703355 1.315843923359151 3.098431543364561 234 185 144
0.632172489703355 1.315843923359151 3.098431543364561 234 185 144
0.900616520247516 1.053549577132269 3.435349025826028 180 129 86
0.638970512660530 1.319673973062909 3.097652142335656 233 183 146
0.722857783735989 1.248529024927528 3.187952527095777 227 176 133
0.682312032108190 1.296416497352524 3.124539109382540 222 171 128
0.918483816511786 1.059598486557179 3.421539164627648 165 113 66
0.788362810111377 1.194182401093686 3.254905593094220 193 144 101
0.801879879839688 1.182065345861341 3.269717723563190 216 167 124
0.928135201647688 1.063542262315446 3.412300008964700 207 155 108
0.938909568758345 1.074626333591406 3.398881735880742 217 162 123
1.730485677476446 0.303205775672479 4.381199857063620 225 170 131
0.636561908432662 1.384381015723341 3.016677733792941 216 166 129
0.620387896878205 1.411075065183259 2.980084062001902 229 185 148
0.651482606753503 1.392259480027853 3.005459511850313 221 177 142
0.806537941840303 1.238489433270125 3.188580669461114 225 173 133
0.985476534086418 1.064752629174084 3.406314640879518 231 178 134
0.636441498425971 1.410140400850741 2.974172326202810 137 90 70
0.636441498425971 1.410140400850741 2.974172326202810 137 90 70
0.631562566555865 1.430421157807484 2.952582375757262 185 141 106
0.645066506401618 1.432502490740210 2.948990115084436 209 165 130
1.004472099642026 1.112768627755219 3.354241677579130 219 167 127
1.604755137675530 0.560311547495937 4.028030920777019 235 176 132
0.982608009302351 1.155115699755690 3.280920085757835 231 183 143
0.696404419646291 1.434610290561599 2.943649988137707 213 170 136
0.810155618328562 1.352842649365910 3.045852022811035 196 146 109
1.042069711221860 1.147577279029153 3.281111307118264 235 187 147
1.056274283669332 1.154332763188307 3.284398121333373 226 178 138
0.953249450463022 1.250198930269535 3.154622713086559 230 182 142
0.932794689335837 1.271699119404774 3.129065842589641 215 173 133
1.042945491875516 1.181477408809431 3.238778413984080 225 180 139
1.130744316312096 1.114416081713551 3.335980589128983 195 152 110
1.532119065119081 0.802546759031570 3.714605748014156 208 159 119
0.883894845842714 1.384990550375796 2.993769613459575 217 173 138
1.014343020954969 1.271855911841431 3.127112805768474 222 177 136
1.123760340718428 1.179986370743988 3.227565499655982 215 170 131
1.192260545108370 1.192741934725064 3.250645442958705 214 168 132
1.545378639777562 0.873414607657644 3.595013257458687 212 158 120
1.192214886455067 1.188960074227263 3.220430212918647 221 173 135
1.099771603920186 1.292159198263785 3.092974041161588 159 112 82
1.520795522631195 0.924979022573255 3.515781598092453 222 174 134
1.072123814160518 1.323972345707161 3.055042025837494 215 172 137
1.230909520666857 1.188925385220542 3.216602939366973 148 99 67
1.154718279548188 1.255415789780563 3.133695674323201 208 163 122
1.476236840740504 1.001890043614997 3.432956291694876 215 171 136
1.476236840740504 1.001890043614997 3.432956291694876 215 171 136
1.387811681012262 1.083189243846142 3.343746882546668 187 144 110
1.453379566044448 1.050159803762689 3.381554197611232 213 167 131
1.122435316435683 1.358182191571857 3.009887589729319 191 150 120
1.252512849576071 1.254822474191411 3.122351741214960 215 172 138
1.227968155554671 1.274956012692914 3.097928754995402 184 141 107
1.611548356007667 1.008837348486189 3.422632625116739 226 178 142
1.618904740027185 0.995006989468743 3.419166973170536 216 171 132
1.497253283895025 1.127018265398642 3.267085760325326 183 137 103
1.807701929083685 0.900634437060208 3.543857829814386 205 156 116
1.240012113512860 1.377662141727177 2.972955174236033 204 161 127
1.334877646647717 1.315394088741404 3.041477817447961 174 128 94
1.569370171162180 1.142680734942324 3.247794464138365 203 160 126
1.569370171162180 1.142680734942324 3.247794464138365 203 160 126
1.686365823234094 1.150787778817690 3.227122636094878 214 170 133
1.812447135355163 1.135119145079542 3.229203667609869 234 191 159
1.851499288565765 1.140685595223272 3.203736304555053 195 152 120
1.971692801794771 1.070648970902709 3.296775630879838 216 170 134
2.388823454935946 0.780540749353604 3.631630330199960 195 159 135
2.254581052735062 0.883348287254495 3.509272075408949 187 152 132
2.254581052735062 0.883348287254495 3.509272075408949 187 152 132
1.877558238210995 1.155723376316869 3.191587029488759 217 173 138
-2.586052942457509 -0.538335037567672 5.731026390042018 143 114 106
-2.575961614862069 -0.596239873387655 5.897888342926572 132 111 106
-2.400960501364268 -0.064933108460185 5.147968142898674 181 142 111
-2.360847752082208 0.026356840486045 4.989533302486317 191 160 131
-2.403790959766791 -0.164618536455163 5.300415604261503 161 125 103
-2.309766924316643 0.072832992358284 4.930977602435907 191 158 127
-2.319816904029588 0.006092918176291 5.018445706850330 191 160 132
-2.170021225758492 0.047546866237425 4.974909517528998 192 156 122
-2.065739167682934 -0.067941667928958 5.156389810403674 154 110 85
-2.041769395756959 -0.171990781532581 5.300651297890897 157 112 89
-1.995596528144838 -0.034433331995465 5.111029974429677 156 112 87
-1.903481067733379 0.434850997003579 4.466530021591511 130 92 73
-1.971789389043628 -0.012846919567507 5.098053678424463 165 123 98
-1.866227280749447 0.394242639176707 4.521059464743047 157 117 92
-1.974120125039895 -0.384835800727259 5.584340651818803 146 117 101
-1.893407373535839 0.022134889565064 5.008473028438227 158 114 87
-1.902657254303752 -0.017752126163374 5.109955145278034 166 122 97
-1.837883217472177 0.195172936307908 4.783039662671945 202 166 132
-1.790634057290988 0.453367266408272 4.427455802991466 128 90 71
-1.855999930368642 0.026894077629463 5.010799190679322 163 119 92
-1.882414911580252 -0.255652774469851 5.452736908364241 157 119 100
-1.870966319006808 -0.253650677185933 5.419358699328382 157 119 100
-1.779157173210367 0.074524468242076 4.978180749223492 161 117 88
-1.768129078479935 0.136195095028754 4.900820068442922 163 120 88
-1.741196776130475 0.149709894488520 4.873233114579525 162 117 84
-1.748489409755019 0.077804518956538 4.967656538794584 172 128 99
-1.686496204229982 0.476581100524386 4.418526005711070 156 116 91
-1.719485784843729 0.184929482183605 4.821282214837022 177 134 99
-1.712432225898713 0.134193461314583 4.901310857988992 178 135 103
-1.617684739539422 0.201620993651464 4.800577302397995 159 110 78
-1.617684739539422 0.201620993651464 4.800577302397995 159 110 78
-1.606124427949969 0.211442403866078 4.794674784928358 173 128 95
-1.684382268821516 -0.832889589414440 6.235036727249285 155 131 121
-1.606252816216213 0.040460601135144 5.038928350432508 174 130 101
-1.595528647574839 0.023509245778078 5.090007181513248 175 130 99
-1.595933718484416 -0.059923474442595 5.189584927249878 175 130 97
-1.579632817832732 0.036732519203547 5.030900070642410 171 126 95
-1.589052860302795 -0.248586729369204 5.418764705018432 154 125 109
-1.547767755857644 0.242273686689095 4.738058171896535 164 119 86
-1.533362356946787 0.021210431098980 5.042247245853678 173 128 97
-1.517064922047956 0.161642624388320 4.824993106584259 176 132 103
-1.508123056687204 -0.009898944150296 5.098181837134980 179 136 104
-1.477941389790660 0.270231500172987 4.694281373487957 163 119 84
-1.469301264647275 0.234137535122891 4.766569567467790 175 129 96
-1.464979827935123 0.329558143927617 4.629122213931624 206 164 126
-1.453638785526374 0.545975418525301 4.310893564900622 154 112 87
-1.454420115615019 0.454798100104884 4.441543058444028 213 169 130
-1.459569760198271 0.247143879586260 4.741041207341229 155 108 78
-1.449718247258603 0.402167052647029 4.520832577744103 213 170 135
-1.449441867118616 -0.085907118224115 5.200586869473965 160 127 112
-1.425351678397744 0.291579649232368 4.675025496368797 172 129 94
-1.417401539593990 -0.227268139059999 5.354709177351680 164 135 119
-1.395604852864732 0.674851291655642 4.129273746730775 151 117 92
-1.412656898555662 -0.090176228491210 5.214664264407777 154 126 112
-1.399486459307814 0.045891222282106 5.050303512391515 173 128 97
-1.392305314875656 0.062854207506428 5.005502078877961 180 135 102
-1.385276604701668 0.530435653745696 4.351468764139622 212 167 126
-1.367479382493060 0.399185744311698 4.520363814204217 214 170 133
-1.349412138986737 0.617390175593077 4.212570280198118 142 100 75
-1.265756199172512 0.353919369692427 4.585309587907860 166 122 87
-1.252157268932552 -0.150336313839726 5.300852349340175 169 138 118
-1.238806747205786 0.621196577117312 4.201323317843849 222 173 132
-1.233134465419865 0.631038507454479 4.194234114763636 163 117 83
-1.216951505606782 0.274175981138487 4.698444602073094 170 129 101
-1.220385633558749 0.329881971796670 4.615579658325625 188 145 111
-1.220385633558749 0.329881971796670 4.615579658325625 188 145 111
-1.220351831490434 0.430244448057715 4.485728496258147 208 164 127
-1.196841074274634 0.201143225082902 4.773168731213995 181 137 108
-1.208414632526791 0.659208672307339 4.152379814051256 169 125 98
-1.202325652472529 0.624689356674931 4.215180266147221 214 169 130
-1.205487911669809 0.715537197655987 4.078875645342389 174 133 105
-1.176032623097213 0.274895631392375 4.726488663015537 175 131 102
-1.144832850977803 0.040974441224862 5.032748099704443 166 139 122
-1.120256435814891 0.332060993810657 4.614953310158271 176 134 109
-1.126508703834775 0.392029718138479 4.524033405674354 173 130 98
-1.126508703834775 0.392029718138479 4.524033405674354 173 130 98
-1.120053924453853 0.341193511330376 4.581945955815223 167 127 101
-1.100086654522044 0.298771890936545 4.671991430048251 172 128 99
-1.122971891325581 0.596661665117839 4.239023749736865 189 148 118
-1.122971891325581 0.596661665117839 4.239023749736865 189 148 118
-1.128700232291473 0.680658788068524 4.126608852218092 158 111 81
-1.067944691161611 0.149379474261567 4.885167525022058 176 135 107
-1.067061227832505 0.238040724335157 4.725985067168815 168 123 94
-1.056368802387367 0.262609275399984 4.711406670422533 179 139 113
-1.064148340735801 0.356167661227830 4.562249832551855 172 132 106
-1.078857712118227 0.612294125090423 4.202144342183595 185 146 115
-1.088905376230276 0.819937916672078 3.923162372074482 169 130 101
-1.031853513027475 0.271342842232588 4.681946974505996 183 143 117
-1.058237617343901 0.584537366939719 4.259565694305148 171 134 107
-1.075736006354487 0.852093988808495 3.880401969742824 183 140 106
-1.047539552162222 0.753192065832395 4.018869017232067 160 115 86
-0.989084136828182 0.333539013947311 4.586133351839659 177 136 108
-0.602773432971629 -2.742198211174115 8.628906504739192 23 79 128
-0.977679970165191 0.357623344037178 4.556385155019223 178 138 112
-0.924766109024138 0.015683219707618 5.021263092659863 159 131 117
-1.001264608920393 0.631397391295177 4.196120415867110 178 141 114
-0.973705562664807 0.422713398501582 4.472046647291078 184 145 116
-0.943006258448198 0.242545735319628 4.717498943813597 172 136 112
-0.889890255808005 -0.091997067429950 5.189790320888583 175 152 138
-1.001651798139994 0.769044605483407 3.991366577580851 164 119 88
-1.013452330273311 0.860817657029990 3.856224243253215 172 131 101
-0.884781235464716 0.032376036902354 5.002838870246052 156 129 118
-0.944289366843264 0.548925740424090 4.303722798656302 179 142 113
-0.960110451775984 0.697697686414994 4.092215719359560 184 145 114
-0.903643884774870 0.438714471836559 4.450129414027003 165 129 105
-0.889157186078267 0.434707684498742 4.449356777828919 184 153 132
-0.884947140721446 0.424874197920205 4.470831666491271 165 130 108
-0.790767838513483 -0.067709273442812 5.130442011099802 160 142 130
-0.905218460149140 0.616710154293990 4.190182839221324 174 137 110
-0.919667076665332 0.776385806336778 3.970781717136780 110 66 53
-0.923828747152382 0.853889683645811 3.862904481174623 158 117 89
-0.828850896112633 0.342543881737266 4.579818100895663 166 144 130
-0.774043584916541 0.042289773511460 4.985717710062592 153 139 128
-0.810304281903633 0.328806539141493 4.597075879284790 164 146 132
-0.765057899215467 0.123157092616989 4.889181302899012 133 122 116
-0.807303368200887 0.338659756857802 4.566085661489550 144 125 111
-0.850507960749808 0.592408769735460 4.224067114263558 177 140 113
-0.787814990069154 0.283779693438891 4.650693861534233 151 129 115
-0.745282048256907 0.055344686547932 4.953774933065905 149 136 127
-0.799822818041059 0.354075087091818 4.554591625898603 160 142 130
-0.784001261518730 0.297754766122437 4.627796243309237 118 100 88
-0.841858294361383 0.626941648993061 4.180248706229802 183 148 120
-0.767739124241464 0.280964680187989 4.646080711546063 129 113 100
-0.719159776205646 0.069461779168799 4.956838437011415 144 131 122
-0.878482814921370 0.917847640109411 3.777726771223424 173 134 101
-0.672995335115142 -0.019521288461180 5.044351529337971 124 119 113
-0.762709211785884 0.435763697471809 4.441229291635629 166 143 125
-0.682806571609159 0.083672397032198 4.934830977695576 141 131 121
-0.710934704926891 0.251838672947620 4.675331574165528 142 132 122
-0.774651935293154 0.560156576764084 4.264796861812359 176 140 114
-0.709159094294402 0.286765424070374 4.633630365249146 131 121 111
-0.798973516662512 0.730403427113155 4.038934633801532 193 153 118
-0.720719795229915 0.481718213830367 4.358750399983380 166 136 112
-0.764873675162244 0.763546744875040 3.978916231705347 197 149 109
-0.697974692957790 0.540935951231051 4.289874352199890 176 142 115
-0.629071014337542 0.265648126801414 4.672971876442245 119 115 106
-0.640092968163115 0.310594548352189 4.606927945275164 136 126 116
-0.755145878244732 0.795609624773579 3.936069597898962 192 150 112
-0.604810193366610 0.264218368255934 4.657227518767298 133 126 118
-0.708930757425360 0.701189455337299 4.062109196011646 177 136 104
-0.732451761583247 0.852018344286140 3.855844507798680 172 124 88
-0.745960964391943 0.960517392006688 3.709651983125359 181 141 106
-0.716979034642461 0.861587129985914 3.850920292915189 168 122 86
-0.658285100541057 0.638005914037487 4.154408654738604 184 148 116
-0.743141849588626 0.988424893618126 3.672792002587722 183 140 105
-0.740219971265439 0.978729996177983 3.691232183932190 180 135 96
-0.490017400999585 -0.652342448162185 3.711684516140413 211 156 136
-0.570249675253279 0.378535944920761 4.495028384104870 113 97 84
-0.658058262843495 0.724829378272030 4.020291844983332 184 140 101
-0.677344274432449 0.798288200537920 3.935107161752452 199 157 119
-0.466811368748313 -0.698007180976860 3.777207981702595 225 173 152
-0.568388629087364 0.427204294368608 4.435059953791658 115 95 84
-0.568388629087364 0.427204294368608 4.435059953791658 115 95 84
-0.567465056567435 0.437530482357871 4.406946914773207 142 125 107
-0.606078472965136 0.629082273251959 4.165852524995827 175 134 102
-0.650333579299784 0.792879557448928 3.937438601711985 193 153 118
-0.728273084351072 1.104749284689703 3.493865386816880 174 130 95
-0.527634759570613 0.499707058682899 4.313624261931547 125 104 85
-0.530901507611206 0.540839830790582 4.258987625272146 148 126 103
-0.666994288753736 1.031842511280765 3.607842968683555 195 150 111
-0.508048020078659 0.520346434681391 4.282145561346123 148 127 106
-0.561393517713346 0.703021049165076 4.041664352017893 191 148 113
-0.490118953877225 0.528756843459223 4.274797826048048 141 121 97
-0.549854959176426 0.744849331562853 3.986613665444407 187 143 104
-0.308790148574054 -0.802875425503247 3.926099540593969 220 167 149
-0.438660608468006 0.329277632535962 4.138025870665979 51 82 66
-0.461081328763921 0.577753369239784 4.215887079348913 122 91 70
-0.469755709755864 0.622615309214269 4.154024072634803 167 136 105
-0.469755709755864 0.622615309214269 4.154024072634803 167 136 105
-0.588383049530360 0.977848146371903 3.677627955658940 192 145 103
-0.473740251013711 0.641605585648881 4.124015978465100 174 138 102
-0.603461192969441 1.041299179659748 3.589520368236314 169 121 83
-0.449573852336222 0.571484453563338 4.213735979364805 154 130 106
-0.527712952009621 0.844917694916114 3.847567103274697 188 144 105
-0.447152081466689 0.682184171194472 4.067246984384474 190 149 105
-0.400078060482395 0.590365837998361 4.181308123437824 151 125 100
-0.430477188101664 0.688261615396525 4.059005857609337 185 140 99
-0.369188857764023 -0.305713556027991 3.490829425380853 16 11 8
-0.430477188101664 0.688261615396525 4.059005857609337 185 140 99
-0.385051917633037 0.578914434889557 4.209227485949267 136 111 89
-0.376357192630742 0.300559494371781 3.979241814674576 48 79 61
-0.377659306746049 0.568445466470339 4.209919485060012 102 81 62
-0.415965897531850 0.693814412622840 4.041097147450103 184 139 98
-0.363691297173289 0.060178132234212 3.761971023330605 43 28 25
-0.370979049429620 0.584226292589362 4.192710537214992 145 121 97
-0.364496360341469 0.398770950408125 4.031856374320035 116 129 122
-0.352882208772048 0.161084913220959 3.834694824655483 126 107 101
-0.395162018126589 0.704136602087105 4.025467130191109 195 152 110
-0.445971668837239 0.885299470802266 3.790567246069034 210 165 124
-0.318571275717553 -0.134418655403600 3.554289252696930 118 107 105
-0.421929117346911 0.873941619536232 3.793296955144255 189 144 103
-0.306416625104529 -0.220198667099500 3.484252473918442 101 97 98
-0.304087913480258 0.049460735959731 3.685384558279846 19 15 14
-0.381694333582601 0.829045156313866 3.860956363715323 203 159 120
-0.451933347749269 1.020994440636190 3.605554265162904 187 140 98
-0.286328142571882 -0.256896693428354 3.440197628337010 12 10 11
-0.347667269754923 0.791614282328366 3.911779876248161 204 157 115
-0.358816383002551 0.839335526380448 3.844622212135514 192 148 111
-0.365895265472152 0.866962326517896 3.814021050516512 202 157 116
-0.372453053177582 0.900309623327417 3.770574143651996 195 150 111
-0.264551882094013 0.232962829919959 3.786153528642155 133 116 108
-0.262638083256770 0.070970894317791 3.660344489312928 38 28 26
-0.350792971094449 0.872656580102440 3.796630255703867 209 164 123
-0.350792971094449 0.872656580102440 3.796630255703867 209 164 123
-0.252971707072399 0.231005940677983 3.773091890090229 68 49 43
-0.350144239796477 0.892345572290563 3.773531487906060 197 148 105
-0.240148104973432 -0.242451939339400 3.408831822879546 19 15 16
-0.223537734781639 -0.207804059376037 3.420070528506584 107 103 104
-0.315106368859695 0.909849485573961 3.753482949054028 194 146 100
-0.213850263718521 0.475615979853841 3.918510022657429 123 130 123
-0.216131339978779 -0.213024380177257 3.417198088628738 7 3 4
-0.216131339978779 -0.213024380177257 3.417198088628738 7 3 4
-0.346694192599337 0.984708369679834 3.644213461879336 163 114 73
-0.346694192599337 0.984708369679834 3.644213461879336 163 114 73
-0.212019946714912 0.676097972198745 4.053683831420844 169 134 96
-0.394501119772394 1.100669772569607 3.493909805572626 207 162 121
-0.213436806356522 -0.354793924469183 3.314225798700075 59 38 43
-0.210516993881363 0.279365834786313 3.772814850690049 136 118 108
-0.210516993881363 0.279365834786313 3.772814850690049 136 118 108
-0.197721300705059 0.242865874234716 3.737467641272406 133 113 104
-0.197024211992040 -0.182651518857346 3.434342460339659 106 102 103
-0.199217773790253 -0.161809378487778 3.442361979477349 106 101 97
0.146407510162882 -1.119746225364858 4.317927137384372 200 158 146
-0.186627175634258 0.188180314599645 3.684700025808832 128 110 106
-0.179562298234482 0.259291451095145 3.733755628934330 140 120 109
-0.177289777412289 0.220189267298878 3.701302460617708 98 79 72
-0.177289777412289 0.220189267298878 3.701302460617708 98 79 72
-0.022580911047843 -0.703950724004940 3.761091944447919 240 179 158
-0.169377437124658 0.481306245615966 3.881629787359932 61 88 69
-0.164194422651573 0.410289946604163 3.831493778321108 121 128 120
-0.164957185769674 -0.355930705066164 3.290976581204480 1 0 0
-0.157286702683142 0.225594203366766 3.694781167810284 41 21 14
-0.156821475697846 -0.192011170359446 3.393648841623617 12 8 7
-0.333662263004173 1.113961199903530 3.465972687901026 197 152 111
-0.144349764427084 0.383550750053715 3.802498587460844 134 134 126
-0.141060576802634 0.466300342265717 3.858656690738808 129 131 126
-0.141060576802634 0.466300342265717 3.858656690738808 129 131 126
-0.134987879258144 0.227321262802886 3.683043032879829 47 25 14
-0.134987879258144 0.227321262802886 3.683043032879829 47 25 14
-0.213156415628552 0.894267219689136 3.760482967218692 197 145 97
-0.130213340209132 0.718999847002689 3.986826038049517 174 122 75
-0.339105298172571 1.166047366897240 3.395682037626689 180 133 91
-0.127455400866357 0.267115151511086 3.705729258476249 97 72 65
-0.131519877867979 -0.340042775847570 3.283109410688699 91 69 72
-0.124883823237597 -0.352111836388097 3.284038611983053 11 7 6
-0.124883823237597 -0.352111836388097 3.284038611983053 11 7 6
-0.118183699561715 -0.129971594319998 3.416402355350350 18 9 10
-0.189737024308991 0.900310338953341 3.743343987795592 204 152 102
-0.116357599666744 -0.170554160211402 3.384636024900694 110 104 104
-0.107948932635503 -0.134349900384257 3.414763702187661 112 104 101
-0.109522240991695 -0.120031982829438 3.419826358425459 111 101 100
-0.113803493952784 0.761914755582120 3.924657461770978 195 142 90
-0.092723336960340 0.402088465947705 3.785994510214191 131 133 128
-0.135609100517098 0.814491177264691 3.860345929725463 177 124 80
-0.179841911430644 0.903615440046495 3.737080018820362 199 145 98
-0.133056836442980 0.820687047352727 3.838358428588153 212 159 105
-0.088275350942092 0.272849576088790 3.690057254902524 43 19 7
-0.087977880736413 0.223949495203793 3.655119985386734 136 114 101
-0.203719197016600 0.980119807070374 3.630994379029240 215 166 126
-0.083168184156860 0.124960642817699 3.581186592950235 37 25 13
-0.121393841857372 0.828247490417955 3.832841084558181 209 156 106
-0.069721406347670 0.399418884577036 3.773034838729654 131 134 125
-0.088083567947753 0.760065075683556 3.892163701363588 224 170 123
-0.147515072099415 0.897867707916650 3.724440064611400 194 142 95
-0.067114940086068 0.135188612613645 3.581701819286441 115 113 90
-0.065882953774777 0.117900309712903 3.571135489558964 109 114 82
-0.201026262935273 1.026868778021385 3.574816391191847 163 109 71
-0.201026262935273 1.026868778021385 3.574816391191847 163 109 71
-0.029950623161577 0.688478692369108 4.006190373331365 99 72 51
-0.048554691612533 0.409982524250176 3.771938080060020 118 126 115
-0.052033648696498 0.743903034165827 3.948310346920162 210 157 105
-0.190115906825029 1.022363687400655 3.579676588314537 220 169 126
-0.180863917933329 1.008616556394344 3.598326803621175 233 181 142
-0.062289058948193 -0.112522324631538 3.408279520154845 115 101 101
-0.046318545674933 0.283007265074946 3.676409737931447 89 65 55
-0.058116456510749 0.778063761230399 3.891688013017391 218 164 117
-0.248246029086514 1.161897455329880 3.396996150333349 201 152 111
-0.248246029086514 1.161897455329880 3.396996150333349 201 152 111
-0.220442532876081 1.142573467201799 3.416816873223874 204 155 114
-0.269657565519801 1.242346221696788 3.282555820671280 211 163 125
-0.009215940420410 0.279578658600216 3.667366030562532 138 116 103
0.013842109085663 0.467929557272324 3.788129126717381 38 19 15
-0.005246779592449 -0.050891161322267 3.427915218129251 125 114 108
-0.156219978497581 1.085436996892147 3.490709072540199 228 179 139
0.035310701878693 0.277811571048336 3.641448847345947 135 113 100
0.035310701878693 0.277811571048336 3.641448847345947 135 113 100
0.020363930541296 -0.083791285938760 3.402859496324717 51 66 59
0.023346058833974 -0.073936850439707 3.411979580289514 6 2 0
0.033899871980246 0.157344644874231 3.561622565139795 34 14 15
-0.007688134324990 0.868582346356457 3.769062788370306 230 174 125
0.081552097754095 0.712349200326326 3.968821607394007 106 75 54
0.023861799326639 -0.185239576819258 3.333112173485397 10 9 7
0.023861799326639 -0.185239576819258 3.333112173485397 10 9 7
0.264777925714112 -0.772796414159866 3.821901124336907 221 164 145
0.057009885863635 0.295730976013039 3.659889627812513 136 112 102
0.057009885863635 0.295730976013039 3.659889627812513 136 112 102
0.030553863685763 -0.190072394921726 3.328644165326067 35 67 56
0.080755986133011 0.512668818629406 3.800797366089528 148 130 128
0.039273431113464 -0.190995508430071 3.326504146789112 13 9 8
-0.022166051353982 0.945839960088506 3.671395504192426 222 169 125
0.050481084668616 -0.044623959272081 3.421361867833789 17 7 6
0.061423138368827 0.043990959313978 3.482351988121572 144 134 143
-0.044213701600032 1.012482828331677 3.580034829607134 205 149 102
0.054442061276621 -0.332203013142130 3.245150552413657 0 4 2
-0.006713057143554 0.948420094580947 3.645245229892176 226 170 123
-0.033547119051426 1.010221459248900 3.581236524063124 189 137 100
0.078424385342217 0.022504161847286 3.466387162049819 25 5 4
0.097697516392659 0.257905002025552 3.626160845851626 138 115 107
0.093287729428964 0.083341579935136 3.508070721886534 124 115 118
0.087278358508378 -0.046415179856023 3.417834864500599 131 126 107
0.100199537735331 0.020160787246541 3.466077688340454 138 125 132
0.125175229847082 0.337365714164149 3.677564457651179 22 8 7
0.111542003887600 0.100302214421971 3.513195417154523 130 119 123
0.111542003887600 0.100302214421971 3.513195417154523 130 119 123
0.143956405282327 0.776136682747444 3.878722410376950 228 168 114
0.095647688233789 -0.319545692461645 3.238695600344191 39 24 27
0.146970070364734 0.376128090680598 3.701801881776908 38 21 11
0.114427607895949 -0.151311187323148 3.342836841510810 19 8 4
0.012907758074387 1.024038576722026 3.556999785070725 244 190 143
0.012907758074387 1.024038576722026 3.556999785070725 244 190 143
0.119510004620075 -0.164583681555970 3.335597657472670 15 11 8
0.076456383871137 0.943977789834468 3.665174049442209 222 166 117
-0.041175167590301 1.153239368197093 3.390859348952724 251 198 154
-0.053291699605117 1.178061138388318 3.356234951882787 206 153 109
0.196653159778658 0.447838494706688 3.746547198481442 16 3 0
0.088395002337575 0.946791593031198 3.650881027706383 228 172 123
0.154533540108616 -0.126776257360137 3.360920832198529 129 119 128
0.217430386740860 0.553044544580522 3.815167126422582 49 28 25
0.177951624393999 0.017428829192248 3.459257209045893 24 10 9
0.225150284786882 0.540720812775917 3.809971183191725 51 27 27
0.061311561911734 1.024403691616944 3.546558708569488 233 176 123
0.183767670299046 0.007409159030112 3.451808346188380 35 21 18
0.209708032619937 0.285846290522242 3.640702889789893 38 23 20
0.168872646783673 -0.253302366205585 3.279940811060591 14 2 4
0.173477060698298 0.870588387381457 3.748371252391958 226 168 120
0.177652373031220 -0.212856762050086 3.305209253496133 26 11 8
0.157892177883720 0.903997058017502 3.701755948065911 249 187 140
0.280440221671546 0.712126320884951 3.954670573941864 121 80 50
0.278194973926113 0.721424088421926 3.937361006225647 199 147 90
0.185403954535429 0.876479697090467 3.746284202809033 227 169 119
0.146728203359215 0.936867062873869 3.662814111191103 229 173 124
0.190692072172354 -0.216644104298071 3.302702361597728 137 128 133
0.231244841610161 0.190173680925334 3.577651600609039 142 129 136
0.158756274208842 0.931801393659727 3.661654057677970 184 131 87
0.242691957059582 0.142988881274828 3.546063980358214 24 6 4
0.277573941878246 0.418975457181058 3.744795748438111 35 18 11
0.202900241907278 0.882767134298402 3.726480948372959 231 174 121
0.083880546507869 1.076160132463137 3.479392528369734 237 181 130
0.222804148538160 -0.217473062069859 3.305687354102501 140 132 143
0.106785610770289 1.053870196496335 3.499899321360789 238 184 138
0.106785610770289 1.053870196496335 3.499899321360789 238 184 138
0.240565976719136 -0.108598968431339 3.381458839891757 142 123 117
0.095971396214066 1.080864507393614 3.469024724482239 231 177 131
0.305802023067944 0.339152108745208 3.691441026884856 39 22 15
0.245783322478869 -0.206529893852144 3.315695999885908 23 12 10
0.249143548107497 -0.347465173157007 3.233867681109334 10 10 8
0.263201845004935 -0.209199728872573 3.320262559122841 18 13 10
0.199010818201979 0.981900472618508 3.598585442030098 236 176 126
0.275007485221887 -0.219246618616931 3.316099957311385 23 13 11
0.313886925980538 0.111154304931831 3.541029696224399 39 14 7
0.254405814110872 0.903964248909905 3.686858622772341 234 174 122
0.254405814110872 0.903964248909905 3.686858622772341 234 174 122
0.262413894694009 -0.343065354820812 3.230650630409122 196 156 144
0.276911139566574 -0.349934349868024 3.230119854901614 5 3 6
0.314027019019008 -0.239027959977180 3.309271729897556 43 24 20
0.322003384133040 -0.228175554488302 3.325712899755656 150 139 143
0.321045521682031 -0.228094532838881 3.323407482220474 150 139 143
0.256170110472962 0.977633511094441 3.597425787351278 214 162 115
0.256170110472962 0.977633511094441 3.597425787351278 214 162 115
0.368250266470412 0.820503077162987 3.800227096703786 232 171 117
0.158810824539908 1.130798887848298 3.402011646796018 253 189 141
0.267528764639633 0.973414602538189 3.596456122692234 228 170 124
0.170849476204666 1.114678915430123 3.415798890174125 248 194 150
0.142795547510248 1.164874857625999 3.366264131593470 227 174 132
0.327323988936419 -0.367927191291425 3.241307413242060 239 181 161
0.156580021890247 1.143330855770491 3.373437151312555 254 197 152
0.166162077240562 1.149057272612887 3.371457830762579 245 191 147
0.158799975461588 1.171903234430685 3.349663289832979 251 196 157
0.177322297503568 1.152622893352257 3.359006856234753 251 197 153
0.517068270296683 0.689693137915274 3.958263474726160 235 169 108
0.376871035304370 -0.372924077541119 3.254127196821367 0 5 3
0.380730846592613 -0.384337126143922 3.258365925937834 248 188 164
0.587568895122495 0.639484306978820 4.027707337362267 219 157 98
0.328662449324289 1.000601244050328 3.553897546953636 243 185 139
0.250486491668229 1.114003315046907 3.403888776035696 238 184 137
0.325562923629075 1.022513674739490 3.528739380376464 245 187 139
0.512124768765972 0.803007143402540 3.782390340597023 252 188 140
0.136197867639357 1.326891410711010 3.134212562650514 228 175 133
0.353588920179948 1.044050776083654 3.494729318210973 145 90 49
0.325898893112358 1.097034365002018 3.430028552162276 238 178 128
0.597747724627665 0.751798022454037 3.868530890934836 185 132 82
0.416290291109328 0.993174685958408 3.559871011513133 252 194 146
0.311379693881907 1.149218830766665 3.358706306879677 234 178 131
0.536601902564752 0.937989426911065 3.620338481888887 239 178 131
0.441436677851060 1.076784342488050 3.443949794957974 248 187 140
0.808295674394921 0.624136273799925 4.023090504376344 228 167 122
0.347551989313072 1.238542760574791 3.235347785860114 242 184 144
0.945829843531298 0.504402934493783 4.170335561661075 230 171 131
0.401118082554146 1.197003186633083 3.282240105931996 249 195 149
0.319824279587809 1.306682140188064 3.153571425051892 224 171 129
0.500970403292272 1.099029407024796 3.406418863465007 240 183 138
0.397916433128120 1.229486724112462 3.240967111946023 212 158 114
0.561342230862757 1.064264139468407 3.464057407456411 244 186 138
1.054049432643056 0.521085044403819 4.129834737453392 231 176 137
0.594254516655012 1.079608981240007 3.430440338443960 209 153 106
0.456335426208743 1.243762243451967 3.218688399235045 200 147 105
0.510801340827329 1.206216237420146 3.277012523005041 247 190 145
0.709289301552508 0.990976268705472 3.539700176077518 238 177 132
0.720588051644404 0.976624102815118 3.546067331722640 222 166 119
0.451934100126372 1.297776584650491 3.147999577761228 231 179 140
0.400691750608554 1.374332586108608 3.051387228505041 219 168 125
0.691868577199661 1.059292302249759 3.453808561166006 202 153 110
1.118399311441955 0.580000527854363 4.049450901660268 217 163 125
0.535158803615359 1.261148801509478 3.210102369882029 217 165 128
0.618606009834498 1.157186802744847 3.323818159925437 231 177 133
0.704773869434980 1.068878271879997 3.420378117314680 225 171 125
1.191162291520306 0.582868452092035 4.047220015853533 223 171 132
0.625082324314327 1.199429623532574 3.274057861309096 212 159 119
0.589019910468096 1.259626379412723 3.190657467179550 214 165 122
1.157241295364911 0.676321011861302 3.925749357025464 242 190 151
0.533774679509395 1.344158628749002 3.071015308235301 247 197 160
0.835276276625740 1.036616776872567 3.463781254938908 238 184 138
0.789252971884795 1.092218571408524 3.398922972935774 242 185 140
0.622792300604427 1.273490797692150 3.156905976737026 184 135 94
0.638528483291368 1.264629385384624 3.172607793571532 224 171 129
0.808279570533175 1.119092713383156 3.355853619410778 216 167 126
0.661945311263329 1.302197213577900 3.121995885436887 235 184 139
0.928804687026226 1.055362431862186 3.431732600234626 249 191 145
0.840603194942065 1.139143724049136 3.319016514188240 174 125 85
0.619435980465930 1.388459542038459 3.012779562644234 217 174 142
0.619959481730747 1.406763489197316 2.996380364944211 124 73 54
0.619959481730747 1.406763489197316 2.996380364944211 124 73 54
0.751610762563725 1.274599625844571 3.153678916102245 218 165 123
0.963079557989580 1.071111832623351 3.412736927333052 251 190 145
0.659195218884509 1.373405016827340 3.028624567291766 211 162 122
0.892279172982830 1.175721839111794 3.274991652138448 225 176 136
1.012416167996441 1.066849266148437 3.398370873695339 187 136 93
1.012416167996441 1.066849266148437 3.398370873695339 187 136 93
0.975008835284605 1.117357145338451 3.333881359783924 236 183 143
1.025391204892984 1.071717651216913 3.390821716989169 203 151 112
0.778365895587901 1.319327967020581 3.075814912959382 209 163 129
0.890141333583013 1.232529526177789 3.190145456639272 218 169 129
0.900512380735122 1.238245731997296 3.181122697061365 221 172 132
0.900512380735122 1.238245731997296 3.181122697061365 221 172 132
0.904165071048814 1.236197540375458 3.164993376058473 213 164 124
1.002128097753314 1.183386281067190 3.250868019683431 223 171 131
1.564327185291200 0.662929359258115 3.880954149646399 236 184 145
1.073660226926978 1.122324158483055 3.317966607127641 207 156 111
0.797053576801784 1.387134005996601 3.002732409905098 188 137 110
0.937641563864209 1.256668889155495 3.156726883211324 215 166 126
1.050341364274662 1.171870672268189 3.252306396182572 217 168 128
0.826795726809599 1.406406319330380 2.961981143099572 219 178 148
1.243819498303566 1.048771183213461 3.402454038048667 195 150 121
1.018717013102186 1.245467856752164 3.156348264877671 218 170 132
0.994394300940789 1.301548922740769 3.095747605095725 220 176 141
1.011950242593816 1.306300446746048 3.077215926875162 209 165 128
1.190693005440575 1.165001132727389 3.254853938100436 218 169 129
1.024184598882497 1.313356597120835 3.076031349613418 200 156 121
0.888350257584852 1.448097522188534 2.906999930730266 212 166 132
1.212244212482553 1.173089501887050 3.240521381578124 207 159 119
1.115441825321801 1.280420860715717 3.104832418864245 206 163 128
1.115441825321801 1.280420860715717 3.104832418864245 206 163 128
1.128603188543744 1.285830004340904 3.098075586768053 199 155 120
1.128603188543744 1.285830004340904 3.098075586768053 199 155 120
1.095789170010619 1.328485209460882 3.061884968008405 186 142 107
1.497068637071246 1.000819594581547 3.434095098690972 181 136 97
1.076483575910143 1.359259651746951 3.003817431643996 192 149 114
1.076483575910143 1.359259651746951 3.003817431643996 192 149 114
1.275704351430303 1.198249887927250 3.198607683049438 213 169 132
1.091632951324246 1.358887957656944 3.008352813956070 158 112 78
1.541876421229384 0.997836840931545 3.442674930040166 202 159 125
1.598245047509321 1.039521038382388 3.375351676237067 201 161 126
1.519668321109138 1.097353478109936 3.297023257051241 212 167 134
1.519668321109138 1.097353478109936 3.297023257051241 212 167 134
1.298298733828104 1.328407351232577 3.025914781384206 214 173 141
1.693256983963372 1.088154064607788 3.309086349623769 200 157 125
1.601406950426239 1.212821865656686 3.152814208521769 206 165 135
1.781927081619977 1.122731580733777 3.249026974116085 217 174 142
2.198295832334900 0.839057808017585 3.569264870157449 185 149 127
1.667085562165421 1.215261516599958 3.118337981069838 199 162 133
1.564674050707303 1.350136126308716 2.968196358912303 182 145 119
1.570874880480607 1.352786048174294 2.963140384181252 181 145 123
1.860132549837318 1.166272412131939 3.176409322396220 232 188 153
-2.535775609035719 -0.378119027109070 5.561240203427416 153 117 101
-2.506424422486874 -0.278885549726829 5.436167459647731 146 114 99
-2.513813188970430 -0.681773722996305 5.997619582360928 143 119 115
-2.422537637893861 -0.375861837851467 5.613796063246725 158 119 102
-2.273288905045806 0.047890280080140 4.950049309337679 197 162 132
-2.281651055651043 -0.113794109628374 5.243317320654276 165 127 104
-2.204364966404476 0.133866070764278 4.883439403367748 199 163 129
-2.118286248915563 0.293061035151774 4.615018272185981 128 90 71
-2.187029991860494 -0.084750405169186 5.159910670879459 155 115 90
-2.132349202074232 -0.010357197743935 5.093554158948507 162 121 93
-2.198133528324552 -0.395905253379068 5.614143450806076 152 116 100
-2.227728286456099 -0.526553297493958 5.829047471477226 145 118 109
-2.049120988351594 0.186262994980614 4.806886869326832 191 155 119
-2.093439201586573 -0.031625665943606 5.123166847078777 161 122 93
-2.127005802232125 -0.241636414557095 5.392052694723919 154 109 86
-2.093478362999396 -0.102167774285661 5.221041893016587 156 112 87
-2.093478362999396 -0.102167774285661 5.221041893016587 156 112 87
-1.982351426145641 0.086497962366523 4.942146101802075 163 122 90
-3.018948359708515 -4.250489681527284 11.656139482216306 108 110 109
-2.936862479739204 -4.191391725705763 11.513725724517002 108 110 109
-2.016248304724329 -0.236863191564749 5.395560201378407 167 123 98
-2.116444805617196 -0.770894947058358 6.218458650447830 169 137 112
-1.902569899382764 0.201872131002757 4.767889553435611 201 163 126
-2.038036191028717 -0.501904613255407 5.785511547576972 150 121 105
-1.887063690730189 0.076667562217021 4.943548483745706 168 127 95
-1.882785273435577 0.037651747569892 5.002231331497857 170 129 99
-1.895764622013836 -0.147835011041516 5.285150851854117 168 124 97
-1.835518094984514 0.182195843370794 4.797907753462156 197 158 119
-1.828012471294839 0.260958394351052 4.711930298843518 199 161 125
-1.933096614330005 -0.385489181288397 5.641124852045979 141 112 98
-1.851969688152947 0.039101320698765 5.006969703580943 155 109 83
-1.814772565246586 0.107681755761636 4.926156786429102 169 124 93
-1.861424297898325 -0.266007825661658 5.445717351622010 143 108 89
-1.846691830047790 -0.235245870836067 5.427157591783121 157 116 98
-1.707106992765173 0.592851281177067 4.248547987581858 138 96 71
-1.791827659871241 -0.115699089848448 5.213944765644013 159 113 87
-1.742649542705300 0.184460815444199 4.818232744462649 178 136 96
-1.812822465281644 -0.334088184954686 5.580897374420545 144 112 97
-1.744180506929490 0.109023355801093 4.916812012794289 161 116 85
-1.726949194384587 0.271400651275600 4.705454742260461 207 165 127
-1.747856298052837 0.054685379455987 4.993128403492018 169 128 98
-1.685755764430866 0.372476234978012 4.569794128542233 212 170 132
-1.650772607530226 0.446719108427390 4.450428470380374 129 84 63
-1.675060263543136 0.092534181109726 4.956800349100960 170 126 99
-1.674203173351407 0.041122196594652 5.028167343803187 168 127 99
-1.647448097636952 0.155629441883330 4.868327269832998 169 126 92
-1.654015289810675 0.098040206832306 4.963762767533133 163 119 92
-1.718058149043325 -0.846813315779905 6.252860749309702 152 128 116
-1.630331254653806 -0.125690853502693 5.253800666834189 171 131 106
-1.601662095957616 0.222479467891882 4.777902840444511 158 113 82
-1.601973739363839 0.149779025629990 4.894979811585934 166 121 90
-1.559731612039872 0.486290774059294 4.390121209553428 142 98 69
-1.667605750042565 -1.264108051610041 6.740043272258709 151 136 131
-1.647001040329089 -0.820590305172591 6.223286889401829 153 131 120
-1.635891718219829 -0.689446118023393 6.057663731747836 169 142 125
-1.584946580338257 0.007806901172263 5.086283036824288 171 126 93
-1.598226686267044 -0.389080855943924 5.645733142903105 163 136 119
-1.524407476148868 0.531509149787597 4.327274541880732 149 109 83
-1.535710677299686 0.126742864719496 4.897104523679368 175 130 97
-1.518128101394763 0.419139895517709 4.512536165533930 211 167 128
-1.470810831376259 0.523087704142839 4.325660255804061 151 110 82
-1.497082018251339 0.009700610181130 5.059616097435641 173 130 98
-1.482812609975571 0.207499972616563 4.793358431221964 172 125 95
-1.482275123392576 0.176889079430395 4.865736201038883 169 125 96
-1.456000499343325 0.534784663785688 4.326487186955627 143 101 76
-1.454517438093887 0.567332890084488 4.298963949199880 158 117 89
-1.543849707340380 -1.799219814086824 7.525619366332687 164 156 153
-1.473227442370555 0.047182658912722 5.020389389654459 170 123 93
-1.473227442370555 0.047182658912722 5.020389389654459 170 123 93
-1.462184827259223 0.290129953245665 4.673476821799550 176 136 100
-1.456226269974595 0.445131088940680 4.463719993963668 206 162 123
-1.460734836593422 0.261796159654523 4.731719270959384 177 134 100
-1.460084373873500 0.142596410751753 4.894437998037883 169 124 93
-1.441183635822531 0.412745629176392 4.493600102253473 210 166 129
-1.437600509672176 -0.067275451524570 5.208961968391585 160 119 101
-1.429125308222785 0.074821049544877 4.980547789900602 169 122 92
-1.427096204046449 0.228163547136068 4.783149630577636 175 130 99
-1.432482396665573 0.091460731689690 5.011262987893912 177 134 102
-1.431201898506748 -0.322806508780342 5.533438486082266 166 140 125
-1.416194184490651 0.200928682649973 4.812524471641502 167 122 91
-1.413503114708835 -0.073892480743002 5.193221945807172 162 130 115
-1.413503114708835 -0.073892480743002 5.193221945807172 162 130 115
-1.391127282336547 0.102001839378533 4.933814258868082 181 136 105
-1.385751996688602 0.228101547087376 4.767105566877421 164 119 90
-1.382517909241657 0.300461376168864 4.664800434581633 170 124 88
-1.382508460095115 -0.108239130700807 5.244005931536040 157 130 113
-1.378252528456021 0.261666486747527 4.733408043331093 174 129 96
-1.372846879335483 0.290695436754254 4.672584330649576 181 135 99
-1.373117864488751 0.324921383684454 4.627994242983645 183 138 99
-1.374418573512054 0.040299174031104 5.052058087588918 183 138 107
-1.366929506508028 0.511633992914761 4.365472668484579 210 163 121
-1.356967069248050 -0.066105451589353 5.187730737770474 150 122 108
-1.355921948849378 0.143048709371543 4.899803646890723 176 132 105
-1.347103358726592 0.241978598976035 4.744415334170061 175 131 102
-1.325060665949829 0.023416092014963 5.058298814255696 180 136 107
-1.315172183852408 -0.277758173858904 5.532802046113295 169 143 128
-1.309713075491171 -0.013679175212637 5.113221843319017 158 119 102
-1.293122393816236 -0.135735997858492 5.303798810910910 166 137 121
-1.274481321122776 -0.333780891046437 5.556052526011053 163 137 122
-1.276114996993658 -0.114255664474995 5.260029336965550 160 131 115
-1.257365764464677 0.624584893131637 4.203900603321524 159 115 86
-1.254179568142777 0.738407893495253 4.037264567332608 165 128 102
-1.234926981777124 0.188268980396642 4.831971326019803 183 140 108
-1.223089180137254 0.020497848409819 5.072025825792790 161 118 99
-1.219853306090053 0.005213512721485 5.078227674778787 166 134 121
-1.220630827642480 0.259177641241027 4.728862610211246 180 137 105
-1.238816647314610 0.765640857169691 3.996781432640064 162 123 94
-1.238816647314610 0.765640857169691 3.996781432640064 162 123 94
-1.214168451352584 0.174531674074934 4.849426968157566 184 141 109
-1.209761618359233 0.243035081516633 4.724484455695556 177 132 101
-1.216940289395693 0.485541946070077 4.398693832631602 208 164 127
-1.196052643693857 0.573012105111045 4.226085990921202 213 165 127
-1.169359061660196 0.214032283210910 4.800917389402839 181 140 110
-1.195162766105566 0.703817262600264 4.110146193225613 171 130 100
-1.151967124072196 0.025943383093855 5.051971348987495 153 124 110
-1.154785020013243 0.228032373578768 4.749101022321387 168 126 101
-1.114685097144155 -0.089271770523949 5.186664323209985 173 142 124
-1.155618538883207 0.719684469553559 4.064178025493836 156 111 82
-1.129254614767226 0.404979202450791 4.504322179649608 188 147 115
-1.060550029489043 -0.017119089791400 5.123941168725854 166 139 122
-1.060550029489043 -0.017119089791400 5.123941168725854 166 139 122
-1.088787101535558 0.358532355372273 4.570697771448780 179 139 113
-1.069652069365779 0.341349988588720 4.603303755474327 181 140 112
-1.087803152240972 0.538530408217591 4.325008994812596 177 141 115
-1.092183512374958 0.627777189503229 4.185692986967687 183 142 112
-1.081513291153210 0.613615951273714 4.212749649156904 186 147 118
-1.055129890892354 0.626885253544814 4.188414308962908 187 146 116
-1.013652678264282 0.333669367057728 4.595180297502663 177 136 108
-0.972543660157983 -0.024212346321091 5.093464632162501 171 144 127
-0.984899634542677 0.111740081470525 4.916712361149438 159 136 120
-0.962444063242788 -0.005718392487756 5.070464458927464 164 137 120
-1.036199628677412 0.722917219474338 4.065295664166610 158 117 89
-1.039699892394782 0.763326960724426 3.997689490479043 173 128 97
-0.917614291066293 -0.085827436363707 5.150231898719919 172 146 131
-0.931251091719538 0.040235759170779 4.974740122624097 156 130 117
-0.986044845804480 0.578201577431869 4.257540602112969 165 123 98
-0.986193320632294 0.590697659766545 4.242200603193295 181 141 115
-0.904660738474333 0.035148704604520 4.989035305003239 163 137 124
-0.903920354588793 0.055502682656312 4.967221384550797 149 127 114
-0.951930380244542 0.435234071921407 4.467075735865890 181 146 124
-0.913557739636399 0.332112609586874 4.587645493677409 166 131 109
-0.824667048701246 -0.216124831934168 5.328628820282535 146 141 135
-0.919888561744500 0.430174977238768 4.468224770259688 165 130 108
-0.879492022247606 0.333966607812370 4.598191782836807 175 140 118
-0.844440356930154 0.129024033733099 4.867336280103366 140 126 117
-0.920951919254439 0.637471349538823 4.174349381872859 169 132 105
-0.822306150341981 0.087235516606522 4.934547935399333 148 131 123
-0.822187535160366 0.087350886603133 4.933684642330768 148 131 123
